# .PCD v0.7 - Point Cloud Data file format
VERSION 0.7
FIELDS x y z rgb
SIZE 4 4 4 4
TYPE F F F U
COUNT 1 1 1 1
WIDTH 1189
HEIGHT 1
VIEWPOINT 0 0 0 1 0 0 0
POINTS 1189
DATA ascii
-0.41467541 -0.18496101 1.7784458 16754176
-0.41558588 -0.18089978 1.7393963 16753408
-0.42577583 -0.1809628 1.7400022 16753408
-0.43985155 -0.18262511 1.7559857 16753920
-0.44868156 -0.18207228 1.7506702 16753664
-0.45015329 -0.17861305 1.7174087 16752896
-0.46363243 -0.17995374 1.7302998 16753408
-0.25793874 -0.097975403 0.94205773 16734464
-0.27298513 -0.1015136 0.97607839 16735232
-0.25891352 -0.094295062 0.90667033 16733440
-0.25411332 -0.090670906 0.87182325 16601600
-0.2540445 -0.088839836 0.85421705 16535808
-0.25552374 -0.087605529 0.84234887 16470016
-0.19633481 -0.066014469 0.63474548 15481856
-0.19650385 -0.0648169 0.62323058 15416064
-0.20507255 -0.066378713 0.63824779 15547648
-0.18008374 -0.057216819 0.55015391 15086592
-0.20132692 -0.062805571 0.60389113 15350272
-0.20142049 -0.061710902 0.59336561 15350016
-0.22219552 -0.066875361 0.64302319 15547904
-0.24087797 -0.071237251 0.68496382 15745536
-0.22584563 -0.065645345 0.63119626 15547648
-0.22894472 -0.065419056 0.62902045 15547648
-0.23927763 -0.067228429 0.64641804 15613440
-0.23824503 -0.065833129 0.63300186 15547648
-0.23565161 -0.064054586 0.6159007 15481856
-0.25054312 -0.06700509 0.64427054 15613696
-0.23541056 -0.061955556 0.59571803 15415808
-0.24829136 -0.064316981 0.61842376 15481856
-0.23888978 -0.060918536 0.58574682 15350016
-0.25083548 -0.06298022 0.60557038 15481600
-0.25760534 -0.06369517 0.61244482 15481856
-0.27461395 -0.066877715 0.64304578 15679232
-0.26585308 -0.063778773 0.61324871 15481856
-0.27279913 -0.064479165 0.6199832 15547648
-0.29523718 -0.068762824 0.66117162 15745536
-0.28857657 -0.066238761 0.63690209 15679232
-0.29453859 -0.066638015 0.64074099 15679488
0.29029348 -0.068178825 0.62253642 15613440
0.36910069 -0.087936655 0.80294383 16470016
0.32081866 -0.07754539 0.70806187 16008704
nan nan nan 2143289344
nan nan nan 2143289344
nan nan nan 2143289344
nan nan nan 2143289344
0.35496467 -0.092423409 0.84391218 16601856
0.37356153 -0.098769441 0.90185732 16734464
0.29656145 -0.079636432 0.72715509 16008960
0.34036857 -0.092845045 0.84776205 16601856
0.30724382 -0.085149623 0.77749568 16272384
0.33146113 -0.093347602 0.85235089 16601856
0.32361034 -0.092629097 0.84579027 16601600
0.30603668 -0.08905112 0.81311995 16404224
0.32471743 -0.096073084 0.87723708 16733440
0.17883332 -0.053810537 0.49134049 14888704
0.11821529 -0.036183544 0.33038959 14098432
0.1022311 -0.031837456 0.29070574 13900800
0.096098818 -0.030457491 0.27810535 13834752
0.1335631 -0.043091338 0.39346421 14361856
0.093059503 -0.030570481 0.27913707 13834752
0.11782125 -0.039420132 0.35994264 14230016
0.095178552 -0.032441851 0.29622445 13900800
0.30758715 -0.1068392 0.97554177 16735488
0.30226183 -0.10702134 0.97720492 16735488
0.30385298 -0.1097006 1.001669 16736000
0.30348581 -0.11175876 1.0204619 16736512
0.2764968 -0.10389052 0.94861758 16734720
nan nan nan 2143289344
0.10870211 -0.042566549 0.38867238 14296064
0.10841822 -0.043365858 0.39597085 14361856
0.10162588 -0.041537143 0.37927294 14295808
0.1086292 -0.045388371 0.41443825 14427904
0.24629804 -0.10524751 0.96100813 16734720
0.24177752 -0.10570987 0.96522999 16734720
0.2315477 -0.10363203 0.94625735 16734208
0.21922214 -0.10048632 0.91753405 16733696
0.21173155 -0.099449523 0.90806711 16733440
0.12036197 -0.057961285 0.52924073 14954752
0.12113123 -0.059839185 0.54638767 15020800
0.12549435 -0.063635111 0.58104807 15152640
0.27328435 -0.14233343 1.2996373 16742656
0.28512019 -0.15262702 1.3936274 16744704
0.27635136 -0.15215442 1.389312 16744704
0.30875516 -0.17497775 1.5977105 16749568
0.12225065 -0.071369231 0.65166783 15481856
0.28828362 -0.17351535 1.5843574 16749056
0.27256078 -0.16928923 1.545769 16748288
0.29473707 -0.18908808 1.7265508 16752384
0.2676658 -0.17755333 1.6212277 16749824
0.21043758 -0.14449061 1.3193344 16742656
0.1991557 -0.14170897 1.2939354 16742144
0.21280734 -0.15711761 1.4346306 16745472
0.19753338 -0.15153036 1.3836138 16744192
0.21214435 -0.16933455 1.5461826 16748032
0.22122441 -0.18403004 1.6803663 16751104
0.20670815 -0.17951494 1.6391393 16750080
0.22037351 -0.20017172 1.827755 16754432
0.20358497 -0.19381116 1.7696772 16753152
0.20572585 -0.20572585 1.8784693 16755712
0.19270101 -0.20292205 1.852868 16754944
0.18678205 -0.20769286 1.89643 16755968
0.16953309 -0.1996714 1.8231865 16754432
0.168597 -0.21104877 1.9270725 16756736
0.16100846 -0.21505243 1.9636297 16757504
0.14309229 -0.20483319 1.8703185 16755456
0.13612868 -0.20991091 1.9166828 16756480
0.12567283 -0.2099891 1.9173968 16756480
0.11306751 -0.20614889 1.8823321 16755456
0.10204069 -0.20469148 1.8690246 16755200
0.092381805 -0.20594549 1.8804748 16755456
0.081256881 -0.20382234 1.8610885 16754944
0.071674205 -0.20549966 1.876404 16755456
0.06114627 -0.20456015 1.8678253 16755200
0.05047011 -0.20263475 1.8502446 16754688
0.040681481 -0.20418565 1.8644059 16755200
0.029991707 -0.20072365 1.8327945 16754432
0.020309422 -0.20389552 1.8617568 16754944
0.0098566674 -0.19791703 1.8071675 16753664
1.1455432e-16 -0.20488746 1.8708141 16755200
-0.010068114 -0.20216277 1.8459351 16754688
-0.020233519 -0.20313351 1.8547988 16754944
-0.029926648 -0.20028824 1.8288188 16754176
-0.040139351 -0.20146464 1.8395604 16754432
-0.049846686 -0.20013174 1.8273898 16754176
-0.060658399 -0.20292801 1.8529224 16754944
-0.070839457 -0.20310634 1.8545507 16754944
-0.082167447 -0.20610638 1.8819438 16755456
-0.091406286 -0.20377077 1.8606176 16754944
-0.10258259 -0.20577854 1.8789505 16755456
-0.11193505 -0.20408414 1.863479 16755200
-0.11956147 -0.19977753 1.8241556 16754176
-0.13352302 -0.20589295 1.8799952 16755456
-0.14726296 -0.21080342 1.9248323 16756736
-0.15061034 -0.20116408 1.8368161 16754688
-0.16660434 -0.20855436 1.9042963 16756224
-0.16861272 -0.1985874 1.8132887 16754176
-0.18083854 -0.20108396 1.8360845 16754688
-0.18920483 -0.19924043 1.8192513 16754176
-0.204319 -0.204319 1.8656235 16755456
-0.20983338 -0.19975962 1.823992 16754432
-0.22263436 -0.20222533 1.8465062 16754944
-0.22660784 -0.19679677 1.7969385 16753920
-0.24328198 -0.20237906 1.84791 16755200
-0.24795215 -0.19791648 1.8071625 16754176
-0.2528877 -0.19399334 1.7713406 16753408
-0.27056727 -0.19976227 1.8240162 16754688
-0.2833848 -0.20164208 1.8411807 16754944
-0.28997797 -0.19910464 1.8180114 16754432
-0.29519343 -0.19581349 1.7879602 16753920
-0.29992259 -0.19241482 1.7569271 16753152
-0.32538131 -0.2020964 1.845329 16755200
-0.32102692 -0.19322327 1.764309 16753408
-0.33431062 -0.19516864 1.7820722 16753920
-0.34496835 -0.19550049 1.7851022 16753920
-0.36265054 -0.1996693 1.8231674 16754944
-0.3745814 -0.20051628 1.8309011 16755200
-0.3604244 -0.1877182 1.7140425 16752384
-0.39222232 -0.19888633 1.8160181 16754944
-0.39523637 -0.19524792 1.782796 16754176
-0.39282972 -0.18917035 1.7273021 16752896
-0.42075437 -0.19762677 1.8045171 16754944
-0.42643213 -0.19546655 1.7847923 16754432
-0.4208025 -0.18833536 1.7196779 16752896
-0.44853234 -0.19610713 1.7906414 16754688
-0.43928909 -0.18771599 1.7140225 16752896
-0.47257483 -0.1974552 1.8029506 16755200
-0.44792572 -0.1830789 1.6716815 16751872
-0.25883865 -0.10353205 0.94534445 16734464
-0.26211667 -0.102642 0.93721735 16734208
-0.25193891 -0.0966217 0.88224643 16667392
-0.24701123 -0.092811652 0.84745717 16470016
-0.24369542 -0.089740932 0.81941855 16338176
-0.25277796 -0.091260895 0.83329731 16404224
-0.20121415 -0.071243554 0.65052027 15547904
-0.20057432 -0.06966871 0.63614047 15481856
-0.19613472 -0.066853017 0.61043054 15415808
-0.20719223 -0.069321491 0.63296998 15481856
-0.19429314 -0.063826211 0.58279294 15284224
-0.19363454 -0.062472131 0.57042897 15218176
-0.19284695 -0.061120775 0.55808979 15152384
-0.24172708 -0.075280182 0.68737841 15811072
-0.22437462 -0.068676986 0.62708503 15481856
-0.24547082 -0.073861606 0.67442554 15745280
-0.23051141 -0.068200655 0.6227358 15481856
-0.24335869 -0.070812963 0.64658856 15613696
-0.23729056 -0.067921229 0.6201843 15481856
-0.24715471 -0.069604844 0.63555729 15547904
-0.2444068 -0.067734957 0.61848348 15481856
-0.25407273 -0.069305442 0.63282347 15547904
-0.24400625 -0.065523647 0.59829211 15415808
-0.25829765 -0.068293735 0.62358564 15547648
-0.25784078 -0.067134924 0.61300462 15481856
-0.25102985 -0.064376801 0.58782041 15350272
-0.26965216 -0.068121403 0.62201214 15547648
-0.27264032 -0.067859672 0.61962229 15547648
-0.26385647 -0.06471362 0.59089583 15416064
-0.27733174 -0.067034118 0.61208415 15547648
-0.28730896 -0.068450131 0.62501365 15613440
0.28759667 -0.07095173 0.6167531 15547904
0.31534848 -0.078919202 0.68601096 15877120
0.27101192 -0.068810008 0.59813601 15481600
nan nan nan 2143289344
nan nan nan 2143289344
nan nan nan 2143289344
nan nan nan 2143289344
0.39673159 -0.10850769 0.94321108 16735488
0.41059008 -0.11403438 0.99125218 16736512
0.35077873 -0.098945774 0.86009336 16667648
0.38124591 -0.10923992 0.94957602 16735488
0.30742085 -0.089495212 0.77794361 16272384
0.32405692 -0.095864713 0.83331102 16535808
0.30779186 -0.092544176 0.804447 16403968
0.2964009 -0.090596683 0.78751832 16272384
0.30175751 -0.09378235 0.81520993 16404224
0.273862 -0.086560063 0.75242966 16140544
0.22457194 -0.07220377 0.62763655 15481856
0.19906381 -0.065120026 0.56606054 15218176
0.17001674 -0.056602374 0.49202025 14823168
0.15583466 -0.052812222 0.45907411 14691328
0.15018652 -0.051825013 0.45049268 14625536
0.14216429 -0.049963385 0.43431038 14559488
0.1607624 -0.057559621 0.50034118 14888704
0.34653318 -0.12643701 1.0990629 16738560
0.2900407 -0.10787304 0.93769425 16734464
0.29905283 -0.11341234 0.98584503 16735744
0.2868748 -0.11096921 0.96460795 16734976
0.27604955 -0.10895313 0.94708306 16734720
0.21032067 -0.084728256 0.73650658 15942912
0.18757027 -0.077154517 0.67067128 15613696
0.1618719 -0.068011761 0.59119719 15283968
0.15684515 -0.067339569 0.58535409 15218432
0.14307103 -0.062793776 0.54583949 15020800
0.30904061 -0.13871816 1.2058177 16740608
0.25876805 -0.11884399 1.0330601 16736512
0.25808847 -0.12133583 1.0547205 16737024
0.25533327 -0.12294102 1.0686737 16737280
0.24295871 -0.11987165 1.0419931 16736512
0.14518312 -0.073439837 0.63838118 15481600
0.1382588 -0.071744591 0.62364513 15350272
0.14072768 -0.07495819 0.65157956 15481856
0.30071494 -0.16451825 1.4300869 16745728
0.26861751 -0.15104443 1.3129647 16742912
0.27618217 -0.15972963 1.3884615 16744704
0.27218661 -0.16203256 1.4084798 16744960
0.12052725 -0.073911503 0.64248115 15416064
0.14191943 -0.089727737 0.77996492 16074752
0.28981745 -0.18908516 1.6436366 16750592
0.25309804 -0.17056309 1.482632 16746752
0.25682127 -0.17895088 1.5555434 16748288
0.23112054 -0.16669472 1.449006 16745728
0.22472532 -0.16796681 1.4600638 16745984
0.22696243 -0.17601882 1.5300565 16747776
nan nan nan 2143289344
nan nan nan 2143289344
nan nan nan 2143289344
0.21441232 -0.19559586 1.7002312 16751616
0.22796835 -0.2175128 1.8907459 16755968
0.20039481 -0.20039481 1.7419465 16752640
0.20181453 -0.21199194 1.8427553 16754944
0.19371346 -0.21427521 1.8626029 16755200
0.18530445 -0.21644083 1.8814276 16755712
0.17550007 -0.21712285 1.8873563 16755712
0.16719502 -0.21984835 1.9110478 16756480
0.16074753 -0.22553131 1.9604473 16757504
0.14717281 -0.22129856 1.923654 16756736
0.14040893 -0.22742961 1.9769485 16757760
0.1235167 -0.21679436 1.8845007 16755712
0.1138918 -0.21812353 1.8960546 16755968
0.10084091 -0.21248589 1.8470491 16754688
0.093787633 -0.21962325 1.9090911 16756224
0.082377143 -0.21705274 1.8867468 16755712
0.071744084 -0.21607336 1.8782334 16755456
0.063221641 -0.22216913 1.9312214 16756736
0.051522762 -0.21729298 1.8888351 16755712
0.04091664 -0.21572244 1.8751831 16755456
0.02948571 -0.2072888 1.8018731 16753664
0.020177785 -0.21278967 1.8496897 16754688
0.010159481 -0.21428487 1.8626869 16755200
1.1436252e-16 -0.2148595 1.8676819 16755200
-0.0099102361 -0.20902775 1.8169889 16753920
-0.019993562 -0.2108469 1.8328021 16754432
-0.030054618 -0.21128832 1.836639 16754432
-0.040808279 -0.21515115 1.870217 16755200
-0.050303768 -0.21215197 1.8441466 16754688
-0.061368875 -0.21565826 1.8746252 16755456
-0.071061529 -0.2140177 1.8603644 16754944
-0.081250466 -0.2140841 1.8609416 16755200
-0.087791853 -0.20558289 1.7870443 16753408
-0.1014908 -0.2138553 1.8589528 16754944
-0.11007952 -0.21082231 1.8325883 16754432
-0.12488117 -0.21918924 1.9053185 16756224
-0.13020377 -0.21089964 1.8332604 16754432
-0.14391409 -0.21639855 1.8810601 16755712
-0.15157355 -0.21266007 1.8485632 16754944
-0.16122067 -0.21199255 1.8427607 16754688
-0.1679576 -0.20779158 1.8062435 16753920
-0.18442808 -0.21541721 1.8725297 16755456
-0.18898624 -0.20904621 1.8171495 16754176
-0.20094931 -0.21108307 1.834855 16754688
-0.20573109 -0.20573109 1.7883326 16753664
-0.21952508 -0.20945677 1.8207182 16754432
-0.22535044 -0.20557408 1.7869676 16753664
-0.24857922 -0.21721378 1.8881466 16755968
-0.25279686 -0.21195941 1.8424726 16754944
-0.26298261 -0.21191077 1.8420498 16754944
-0.27025583 -0.20959467 1.8219169 16754688
-0.28744286 -0.2148439 1.8675463 16755712
-0.28088111 -0.2025843 1.7609788 16753152
-0.30634069 -0.21345557 1.8554782 16755456
-0.31562027 -0.2126969 1.8488833 16755456
-0.33208251 -0.21666008 1.8833336 16756224
-0.32171962 -0.20340537 1.7681159 16753664
-0.33721986 -0.20679495 1.7975802 16754176
-0.3609677 -0.21488389 1.8678939 16755968
-0.36824289 -0.21297285 1.851282 16755712
-0.36917487 -0.20758812 1.8044748 16754688
-0.39005035 -0.21339281 1.8549325 16755712
-0.36975101 -0.19694678 1.7119743 16752384
-0.39112401 -0.20296021 1.7642465 16753664
nan nan nan 2143289344
-0.42816681 -0.21125014 1.8363073 16755712
-0.42732537 -0.20575391 1.7885308 16754432
-0.42951778 -0.20193034 1.7552943 16753664
-0.42291197 -0.19423009 1.6883593 16752128
-0.43606046 -0.19573319 1.7014251 16752640
-0.45339411 -0.19899435 1.7297729 16753408
-0.48030615 -0.20621362 1.792527 16754944
-0.26130372 -0.10978884 0.95434749 16734720
-0.26784286 -0.11017357 0.95769179 16734720
-0.25887719 -0.10428939 0.90654308 16733696
-0.26687568 -0.10533234 0.915609 16733952
-0.24666137 -0.095413804 0.82939142 16403968
-0.25089291 -0.09514825 0.82708311 16403968
-0.20843005 -0.077520095 0.67384911 15679488
-0.19836038 -0.072374284 0.62911874 15481856
-0.18750548 -0.067134753 0.58357376 15283968
-0.18635884 -0.065495484 0.56932425 15218176
-0.19857296 -0.068521775 0.59563053 15350016
-0.170524 -0.057790425 0.50234747 14888960
-0.23036619 -0.076694056 0.66666865 15679488
-0.23498757 -0.076871812 0.66821384 15679488
-0.22189449 -0.071342923 0.62015355 15481856
-0.23274872 -0.073565312 0.63947183 15547904
-0.23450869 -0.07288228 0.63353455 15547648
-0.23936035 -0.073161907 0.63596517 15547904
-0.23963036 -0.07204996 0.62629956 15547648
-0.24304271 -0.071898535 0.62498325 15547648
-0.24644783 -0.071744971 0.62364841 15547648
-0.25613803 -0.073392257 0.63796759 15613440
-0.27349487 -0.077145956 0.67059684 15745536
-0.26840425 -0.074544698 0.64798522 15679488
-0.26769751 -0.073216356 0.63643855 15613696
-0.26375163 -0.071050324 0.61761016 15547648
-0.28608304 -0.075916946 0.6599136 15745280
-0.28487676 -0.074481018 0.64743167 15679488
-0.29974541 -0.077223122 0.67126763 15811328
-0.29438207 -0.074743703 0.64971507 15745280
-0.30580503 -0.076530859 0.66525006 15811072
0.30503428 -0.078871034 0.65414816 15745280
0.32841522 -0.086140029 0.71443641 16074496
0.3150897 -0.083846934 0.69541776 15942912
0.35177222 -0.094983049 0.78777957 16403968
nan nan nan 2143289344
nan nan nan 2143289344
nan nan nan 2143289344
nan nan nan 2143289344
0.42438382 -0.12353099 1.0245532 16737536
0.35805187 -0.10585216 0.87792683 16733696
0.37064371 -0.11130703 0.92316896 16734720
0.27365503 -0.08349485 0.69249755 15877120
0.32924628 -0.10208175 0.84665537 16601600
0.29766032 -0.093799964 0.77796715 16272384
0.30530316 -0.097803377 0.81117105 16404224
0.29639402 -0.09654332 0.80072021 16338176
0.29779491 -0.098649032 0.81818479 16404224
0.32142326 -0.10831072 0.89831787 16733952
0.2269319 -0.077805005 0.64530665 15613440
0.2123844 -0.074106343 0.61463028 15416064
0.16530842 -0.058715817 0.48698288 14822912
0.15385801 -0.055643994 0.4615055 14691328
nan nan nan 2143289344
nan nan nan 2143289344
nan nan nan 2143289344
0.2839869 -0.11069857 0.91812247 16733952
0.30030173 -0.11936033 0.9899621 16735744
0.29150173 -0.11817919 0.9801659 16735488
0.28642929 -0.11848404 0.98269433 16735488
0.29442337 -0.12431066 1.0310197 16736512
0.22649069 -0.097642176 0.80983406 16272384
0.20581493 -0.090631515 0.7516883 16008960
0.17216189 -0.077468649 0.64251691 15481856
0.15808256 -0.072717443 0.60311091 15284224
nan nan nan 2143289344
0.26294404 -0.12656675 1.0497315 16736768
0.26335016 -0.12976089 1.0762233 16737536
0.26878136 -0.13563704 1.1249596 16738560
0.26512158 -0.13709413 1.1370444 16738816
0.28907889 -0.1532575 1.2711017 16742144
0.15707973 -0.085429192 0.70854086 15745536
0.14902104 -0.083191104 0.68997836 15679488
0.14913724 -0.085513562 0.70924056 15745536
0.25949019 -0.15292591 1.2683516 16741888
0.27329314 -0.16565646 1.3739374 16744192
0.29367477 -0.18322803 1.5196743 16747776
0.2793411 -0.17953594 1.4890524 16747008
0.16884318 -0.11188146 0.92793322 16733696
0.19912152 -0.13615727 1.1292742 16738304
0.26930779 -0.19021069 1.5775877 16749056
0.24711458 -0.18046415 1.496751 16747008
0.24191864 -0.18286996 1.5167043 16747520
0.21264963 -0.16658117 1.3816068 16744192
nan nan nan 2143289344
nan nan nan 2143289344
nan nan nan 2143289344
nan nan nan 2143289344
0.22023702 -0.21056685 1.7464195 16752640
0.22033483 -0.22033483 1.8274341 16754688
0.19754292 -0.20703855 1.7171563 16751872
0.19660495 -0.21644677 1.795187 16753664
0.18670815 -0.21645378 1.7952452 16753664
0.17808163 -0.21800287 1.8080931 16753920
0.1661032 -0.21537538 1.7863009 16753408
0.15912695 -0.21929733 1.8188293 16754176
0.15391019 -0.22631831 1.8770605 16755456
0.14291282 -0.22522262 1.8679729 16755456
0.13075316 -0.22196996 1.8409958 16754688
0.11713888 -0.21548304 1.7871939 16753408
0.11048504 -0.22177026 1.8393394 16754688
0.099531323 -0.21980767 1.8230621 16754176
0.089294344 -0.21915251 1.817628 16754176
0.079725884 -0.22016469 1.826023 16754176
0.06968955 -0.21997461 1.8244464 16754176
0.060842197 -0.2240849 1.8585368 16754944
0.049459316 -0.21861726 1.8131888 16753920
0.04121523 -0.22774185 1.8888671 16755712
0.029515503 -0.21747242 1.8036937 16753664
0.02000238 -0.2210795 1.8336104 16754432
0.0098930402 -0.21869533 1.8138363 16753920
1.0997284e-16 -0.21654391 1.7959927 16753664
-0.0097414227 -0.21534367 1.786038 16753408
-0.01967749 -0.2174886 1.8038279 16753664
-0.0296617 -0.21854961 1.8126278 16753920
-0.039460927 -0.21804816 1.8084687 16753920
-0.049432244 -0.2184976 1.8121964 16753920
-0.058763232 -0.21642797 1.7950311 16753664
-0.069007434 -0.21782151 1.8065889 16753920
-0.077257454 -0.21334806 1.7694867 16752896
-0.083448559 -0.20480537 1.6986344 16751360
-0.098827727 -0.21825384 1.8101747 16753920
-0.11090174 -0.22260667 1.8462766 16754688
-0.12161925 -0.2237249 1.8555511 16754944
-0.13004979 -0.22077593 1.8310926 16754432
-0.14056502 -0.22152261 1.8372855 16754688
-0.14855538 -0.2184443 1.8117542 16754176
-0.16103059 -0.2219208 1.8405881 16754688
-0.16628705 -0.21561375 1.788278 16753664
-0.18246068 -0.22336359 1.8525544 16755200
-0.19174044 -0.22228779 1.8436319 16754944
-0.19746962 -0.2173987 1.8030822 16753920
-0.21524349 -0.22558998 1.8710197 16755456
-0.21415499 -0.21415499 1.7761792 16753408
-0.22694474 -0.21698005 1.79961 16753920
-0.23118439 -0.21172436 1.7560198 16752896
-0.24777614 -0.21773599 1.8058797 16754176
-0.25621879 -0.2163848 1.794673 16753920
-0.26760578 -0.21751557 1.8040515 16754176
-0.27230632 -0.2133138 1.7692025 16753408
-0.28851965 -0.21809636 1.8088685 16754432
-0.28932458 -0.21128951 1.7524133 16753152
-0.30155119 -0.21298406 1.7664676 16753408
nan nan nan 2143289344
-0.32488984 -0.2152835 1.7855389 16753920
nan nan nan 2143289344
-0.34001473 -0.21214022 1.7594689 16753408
-0.3612273 -0.21895768 1.8160123 16754944
-0.35023215 -0.20640306 1.7118856 16752384
-0.36916578 -0.21167535 1.7556133 16753408
-0.38229871 -0.21341853 1.770071 16753920
-0.40140209 -0.21830606 1.8106078 16754944
-0.41523439 -0.22013986 1.8258171 16755200
-0.41233617 -0.21321866 1.7684134 16753920
-0.43535659 -0.21969709 1.8221447 16755456
-0.42098269 -0.20743138 1.7204143 16752896
-0.45303571 -0.21806638 1.80862 16755200
-0.43775225 -0.20593771 1.7080261 16752896
-0.4563753 -0.20993109 1.7411467 16753664
-0.46509406 -0.20928098 1.7357547 16753664
-0.2695258 -0.11868687 0.98437655 16735488
-0.2580443 -0.11124522 0.9226563 16733952
-0.25843829 -0.10911714 0.90500617 16733440
-0.26059231 -0.10779635 0.89405167 16733440
-0.25867242 -0.10486969 0.86977828 16601600
-0.26024228 -0.10343798 0.85790384 16535808
-0.20154855 -0.078563966 0.65160137 15547904
-0.18658976 -0.071352132 0.59178716 15284224
-0.20530355 -0.077040598 0.63896674 15547648
-0.20044644 -0.073832817 0.61236173 15415808
-0.2000154 -0.072337195 0.59995717 15350016
-0.23009144 -0.081726067 0.67782754 15745280
-0.22243619 -0.077613667 0.64371967 15547904
-0.24735248 -0.084806331 0.70337486 15877120
-0.22810684 -0.076865673 0.6375159 15547648
-0.23905088 -0.079189189 0.65678686 15679232
-0.24504203 -0.079816625 0.66199082 15679488
-0.23605914 -0.075621165 0.62719411 15547648
-0.23699297 -0.074682213 0.61940652 15481856
-0.24612509 -0.076310284 0.6329096 15547904
-0.25066802 -0.076481275 0.63432777 15547904
-0.2567133 -0.077092893 0.63940042 15613440
-0.25119871 -0.074262775 0.6159277 15481856
-0.24771555 -0.072105825 0.5980382 15416064
-0.27022007 -0.077458866 0.64243579 15613696
-0.25851333 -0.072986685 0.60534394 15481856
-0.27286798 -0.075890765 0.62943012 15613440
-0.26949945 -0.07384757 0.6124841 15547648
-0.30157688 -0.08142966 0.67536914 15811328
-0.28108132 -0.074797139 0.62035966 15547904
-0.29275396 -0.076786436 0.6368587 15679488
0.2847029 -0.076994739 0.6105473 15547648
0.28551254 -0.078326225 0.62110561 15613440
0.26737997 -0.074418724 0.5901202 15416064
0.30744201 -0.086825661 0.68850386 15877120
0.30088517 -0.086234182 0.68381357 15877120
nan nan nan 2143289344
nan nan nan 2143289344
nan nan nan 2143289344
nan nan nan 2143289344
0.39677691 -0.12268755 0.97287881 16736256
0.41918895 -0.13166675 1.0440814 16737792
0.32087263 -0.10239747 0.81198406 16469760
0.32291183 -0.10471562 0.83036637 16535808
0.2900148 -0.095587738 0.7579847 16140800
0.29950613 -0.10035259 0.79576874 16338176
0.29791677 -0.10149579 0.80483401 16403968
0.29725531 -0.10299248 0.81670231 16404224
0.27909255 -0.098365478 0.78001142 16272128
0.26298499 -0.094306856 0.74782765 16074752
0.27283573 -0.099571332 0.78957355 16272384
0.24556348 -0.091227174 0.72340667 15942912
0.27707195 -0.10480719 0.83109248 16470016
0.29475749 -0.11355761 0.90048099 16733696
0.29833975 -0.117094 0.92852348 16734464
0.34548104 -0.13817951 1.0957259 16738304
0.30666378 -0.12502778 0.99143624 16735744
0.30499583 -0.12679332 1.0054365 16736256
0.28960878 -0.12280382 0.97380084 16735232
0.28040642 -0.12131953 0.96203089 16734976
0.27297577 -0.12054814 0.9559139 16734720
0.26535302 -0.11964966 0.94878918 16734720
0.25912622 -0.11934769 0.94639468 16734464
0.23059316 -0.10852648 0.86058539 16535808
0.23847371 -0.11473488 0.90981632 16733440
0.24927215 -0.12265397 0.97261256 16734976
0.2851868 -0.14357738 1.1385295 16739072
0.28934887 -0.14911878 1.1824713 16740096
0.29188702 -0.15406156 1.2216661 16740864
0.2698997 -0.14597434 1.1575366 16739328
0.27700347 -0.15359989 1.2180053 16740864
0.25188866 -0.14328314 1.1361963 16738816
0.15750839 -0.09196727 0.72927541 15877120
0.15332432 -0.091951795 0.72915268 15877120
0.27283829 -0.16817667 1.3335952 16743424
0.26633486 -0.16885267 1.3389558 16743424
0.28820637 -0.18807417 1.491377 16747008
0.26250651 -0.17646433 1.399314 16744960
0.21597394 -0.14968431 1.1869558 16739840
0.21880025 -0.15648429 1.2408779 16741120
0.24692206 -0.18240899 1.4464536 16745984
0.2522817 -0.19269864 1.5280478 16747776
0.25457042 -0.20127104 1.5960245 16749312
0.23846625 -0.19538377 1.5493401 16748288
nan nan nan 2143289344
nan nan nan 2143289344
nan nan nan 2143289344
nan nan nan 2143289344
0.2023378 -0.2023378 1.6044836 16749312
0.2174551 -0.22744161 1.80355 16754176
0.20988286 -0.23007374 1.824422 16754432
0.2065178 -0.23780143 1.8857006 16755968
0.18914837 -0.22935319 1.8187083 16754432
0.18292147 -0.23421143 1.8572328 16755200
0.17306474 -0.23470749 1.8611665 16755200
0.17000175 -0.24504358 1.9431288 16757248
0.15559043 -0.23929603 1.8975524 16755968
0.1444061 -0.23802722 1.887491 16755712
0.13467163 -0.23912142 1.8961678 16755968
0.12523614 -0.24095838 1.9107343 16756224
0.11576471 -0.24303921 1.9272346 16756736
0.10238504 -0.23649389 1.875332 16755456
0.090305299 -0.23181207 1.8382065 16754688
0.080148317 -0.23149574 1.8356981 16754432
0.070740908 -0.23354784 1.8519707 16754944
0.060541589 -0.23321787 1.8493541 16754944
0.050102383 -0.23163013 1.8367639 16754432
0.039672472 -0.2292845 1.8181635 16754176
0.029284623 -0.22568047 1.7895846 16753408
0.019923994 -0.23032629 1.8264248 16754176
0.0097673396 -0.22583243 1.7907897 16753408
1.1056714e-16 -0.22771254 1.8056985 16753920
-0.0097835734 -0.22620778 1.7937661 16753408
-0.019978106 -0.23095185 1.8313853 16754432
-0.02926839 -0.22555536 1.7885926 16753408
-0.040040407 -0.23141097 1.8350259 16754432
-0.049020261 -0.22662732 1.7970929 16753664
-0.060087118 -0.23146717 1.8354716 16754432
-0.068847418 -0.22729656 1.8023998 16753664
-0.080018483 -0.23112075 1.8327246 16754432
-0.091668397 -0.23531112 1.8659531 16755200
-0.10303407 -0.23799305 1.88722 16755712
-0.1090425 -0.22892644 1.8153243 16754176
-0.12387347 -0.23833655 1.889944 16755968
-0.13059494 -0.23188289 1.8387681 16754688
-0.1434222 -0.23640545 1.8746307 16755456
-0.14910412 -0.22932017 1.8184465 16754176
-0.16247877 -0.23419984 1.8571409 16755200
-0.16286825 -0.22087918 1.7515118 16752640
-0.17786463 -0.22773668 1.8058898 16753920
-0.19120097 -0.2318421 1.8384447 16754688
-0.18621166 -0.21441928 1.7002865 16751616
nan nan nan 2143289344
nan nan nan 2143289344
nan nan nan 2143289344
nan nan nan 2143289344
nan nan nan 2143289344
nan nan nan 2143289344
nan nan nan 2143289344
nan nan nan 2143289344
nan nan nan 2143289344
nan nan nan 2143289344
nan nan nan 2143289344
nan nan nan 2143289344
nan nan nan 2143289344
nan nan nan 2143289344
nan nan nan 2143289344
nan nan nan 2143289344
-0.3688885 -0.22738172 1.8030751 16754688
-0.37565479 -0.22528802 1.7864727 16754176
-0.37701476 -0.22013442 1.7456059 16753408
-0.39211312 -0.22304776 1.768708 16753920
-0.39801371 -0.22070071 1.7500966 16753664
-0.40980598 -0.22164217 1.7575619 16753664
-0.41016349 -0.21648933 1.7167014 16752896
-0.43508452 -0.22422506 1.7780436 16754432
-0.4358561 -0.21943188 1.7400351 16753408
nan nan nan 2143289344
-0.44977954 -0.2163987 1.7159827 16753152
nan nan nan 2143289344
-0.46270669 -0.21311225 1.6899221 16752640
-0.28031754 -0.12639727 1.002296 16736000
-0.26235098 -0.11585614 0.91870767 16733952
-0.28623664 -0.12384202 0.98203349 16735488
-0.25793281 -0.10937215 0.86729139 16601600
-0.27389145 -0.11386256 0.90289909 16733696
-0.18089058 -0.073749654 0.58481467 15283968
-0.17632063 -0.070521668 0.55921757 15152384
-0.20607598 -0.080881812 0.64137077 15547648
-0.21450938 -0.082641408 0.65532386 15613696
-0.19266385 -0.072878391 0.57790577 15283968
-0.24205542 -0.089923933 0.7130723 15877120
-0.2232587 -0.081478208 0.64609998 15613440
-0.233033 -0.083566025 0.66265583 15679488
-0.24366283 -0.085878365 0.68099201 15745536
-0.25517809 -0.088413633 0.701096 15877120
-0.23764458 -0.080961958 0.64200628 15613440
-0.24533641 -0.082202472 0.65184325 15613696
-0.25066072 -0.082616784 0.6551286 15679488
-0.25099382 -0.081393659 0.64542955 15613696
-0.26617843 -0.084943362 0.67357767 15745536
-0.25099584 -0.078837492 0.62515986 15547648
-0.2675153 -0.082718514 0.65593529 15679488
-0.26425472 -0.080452614 0.63796729 15613696
-0.27657774 -0.08292225 0.65755087 15745280
-0.26847044 -0.079278871 0.6286599 15613440
-0.31056827 -0.090342849 0.71639419 16008960
-0.31327221 -0.089784332 0.71196526 16008960
-0.30703747 -0.086711414 0.68759793 15877120
-0.30259389 -0.084219657 0.66783893 15811328
-0.34062597 -0.0934458 0.74099976 16206336
0.31131902 -0.087894604 0.66762578 15811328
0.31139994 -0.089184202 0.67742127 15877120
0.27332973 -0.079419583 0.60325158 15481856
0.35169289 -0.10368975 0.78760189 16403968
0.32822552 -0.098206088 0.74594927 16206336
nan nan nan 2143289344
nan nan nan 2143289344
nan nan nan 2143289344
nan nan nan 2143289344
0.40922797 -0.13210121 1.0034082 16737024
0.40744314 -0.13360436 1.0148259 16737280
0.31991842 -0.10658183 0.80956936 16404224
0.3428078 -0.11605547 0.88152885 16733696
0.29760543 -0.10240243 0.77782363 16272384
0.30383575 -0.1062794 0.80727226 16403968
0.2990841 -0.10637359 0.80798757 16403968
0.28687361 -0.1037657 0.7881788 16272384
0.28991869 -0.10667387 0.81026846 16403968
0.29799372 -0.11155955 0.84737897 16536064
0.28980571 -0.11041482 0.83868378 16535808
0.27279821 -0.1058009 0.80363762 16338176
0.31293714 -0.12357853 0.93867213 16734720
0.31675732 -0.12739883 0.96769017 16735488
0.34968874 -0.14328229 1.0883371 16738304
0.36312625 -0.15162279 1.1516894 16739840
0.29267862 -0.12457257 0.9462226 16734720
0.30305472 -0.13152578 0.9990375 16736000
0.31597179 -0.13987362 1.0624456 16737536
0.29574576 -0.13358222 1.0146577 16736256
0.29020727 -0.13379259 1.0162556 16736256
0.28439313 -0.13387328 1.0168686 16736256
0.29586136 -0.14225851 1.0805607 16737792
0.25429538 -0.12494391 0.94904321 16734464
0.28104037 -0.1411598 1.0722151 16737536
0.28060335 -0.14414117 1.0948609 16738048
0.25077841 -0.13180567 1.0011635 16735744
0.29268035 -0.15746769 1.1960859 16740352
0.27301979 -0.15043919 1.1426991 16739072
0.27894053 -0.15749729 1.1963106 16740352
0.28142598 -0.16291356 1.2374513 16741376
0.25535965 -0.15164432 1.151853 16739072
0.17121187 -0.10436403 0.79272354 16140800
0.15750094 -0.098609708 0.74901509 15942912
0.16235586 -0.10447582 0.7935726 16140800
0.26266614 -0.17384867 1.3205118 16743168
0.2885682 -0.19659001 1.4932493 16747264
0.2539131 -0.17819248 1.3535062 16743680
0.2337482 -0.16912608 1.2846401 16742144
0.23775654 -0.17751817 1.3483844 16743680
0.23974149 -0.18489148 1.4043902 16744960
0.23853828 -0.19021219 1.444805 16745728
0.23533951 -0.19424754 1.4754566 16746496
0.21703279 -0.18564117 1.4100846 16744960
nan nan nan 2143289344
nan nan nan 2143289344
nan nan nan 2143289344
nan nan nan 2143289344
0.20765366 -0.21678387 1.646637 16750336
0.21813306 -0.23818213 1.8091729 16754176
0.20078394 -0.22977693 1.7453291 16752640
0.19655055 -0.23627546 1.7946903 16753920
0.18409264 -0.23303761 1.7700963 16753152
0.1792945 -0.2396612 1.8204076 16754432
0.16486511 -0.23341808 1.7729863 16753152
0.15977231 -0.24042454 1.8262057 16754432
0.14462416 -0.23220997 1.7638098 16752896
0.13500197 -0.23231035 1.7645723 16752896
0.12530552 -0.23227364 1.7642934 16752896
0.11749659 -0.23600706 1.7926517 16753664
0.10747971 -0.23556677 1.7893072 16753408
0.094368018 -0.22755983 1.7284886 16752128
0.087809451 -0.23531599 1.7874024 16753408
0.079140581 -0.23863558 1.8126173 16753920
0.06406863 -0.2208198 1.6772929 16750848
0.059266359 -0.23834367 1.8103999 16753920
0.047444869 -0.22898829 1.7393388 16752384
0.037351996 -0.22536509 1.7118179 16751616
0.027706757 -0.2229089 1.6931611 16751104
nan nan nan 2143289344
0.0092683965 -0.22371857 1.6993113 16751360
1.0678623e-16 -0.22959557 1.7439516 16752384
-0.0094306208 -0.2276343 1.7290541 16752128
-0.01919622 -0.2316702 1.75971 16752640
-0.028242076 -0.22721568 1.7258744 16751872
-0.037481766 -0.22614805 1.7177651 16751872
-0.046714947 -0.2254654 1.7125797 16751616
-0.0568983 -0.22882037 1.7380632 16752384
-0.066641971 -0.22968912 1.744662 16752384
-0.076675542 -0.23120268 1.7561587 16752640
-0.08523111 -0.22840643 1.7349191 16752128
-0.097286619 -0.23459777 1.781947 16753408
-0.10563686 -0.23152773 1.7586277 16752896
-0.11723723 -0.23548608 1.7886944 16753408
nan nan nan 2143289344
nan nan nan 2143289344
nan nan nan 2143289344
nan nan nan 2143289344
nan nan nan 2143289344
nan nan nan 2143289344
nan nan nan 2143289344
nan nan nan 2143289344
nan nan nan 2143289344
nan nan nan 2143289344
nan nan nan 2143289344
nan nan nan 2143289344
nan nan nan 2143289344
nan nan nan 2143289344
nan nan nan 2143289344
nan nan nan 2143289344
nan nan nan 2143289344
nan nan nan 2143289344
nan nan nan 2143289344
nan nan nan 2143289344
nan nan nan 2143289344
nan nan nan 2143289344
nan nan nan 2143289344
nan nan nan 2143289344
nan nan nan 2143289344
-0.37090248 -0.23221821 1.7638724 16753664
-0.38805234 -0.23654146 1.7967107 16754688
-0.38990629 -0.2315443 1.7587537 16753664
-0.41598275 -0.24080661 1.8291078 16755456
-0.41897362 -0.23656373 1.7968799 16754688
nan nan nan 2143289344
-0.41663355 -0.2241569 1.7026408 16752640
-0.43554983 -0.22891898 1.7388123 16753408
nan nan nan 2143289344
nan nan nan 2143289344
-0.46419811 -0.22807622 1.7324109 16753664
-0.47966194 -0.23063505 1.751847 16754176
-0.47318745 -0.22274503 1.6919165 16752640
nan nan nan 2143289344
-0.2843709 -0.12844445 0.97563243 16735232
-0.24588144 -0.1088462 0.82676899 16403968
-0.27398679 -0.1189103 0.90321338 16733696
-0.20449418 -0.087038688 0.66112447 15613696
-0.25520203 -0.10655919 0.80939746 16338176
-0.22412834 -0.09183488 0.69755512 15811328
-0.23964989 -0.096386455 0.73212785 16008704
-0.23642746 -0.093364939 0.70917714 15877120
-0.24284141 -0.094182581 0.7153877 15942912
-0.23249218 -0.088578589 0.67282122 15745280
-0.24207878 -0.090626746 0.68837851 15811072
-0.22745925 -0.083692282 0.63570601 15547648
-0.2482169 -0.089783095 0.6819703 15811072
-0.23988679 -0.085319206 0.64806372 15613696
-0.24097319 -0.084290564 0.64025038 15613440
-0.2494217 -0.085822985 0.65189028 15679232
-0.25189546 -0.085277662 0.64774811 15613696
-0.24959467 -0.083153248 0.63161165 15547904
-0.25266644 -0.082851663 0.62932086 15547904
-0.26470649 -0.085448809 0.64904815 15679488
-0.27772778 -0.088272229 0.67049414 15811072
-0.2882998 -0.090237185 0.6854195 15877120
-0.27061805 -0.083426714 0.63368881 15613696
-0.28905538 -0.087781928 0.66676992 15811072
-0.29268774 -0.087573066 0.66518348 15811072
-0.29550287 -0.08712323 0.66176665 15745536
-0.28069493 -0.081559628 0.6195069 15547904
nan nan nan 2143289344
0.29224953 -0.085990787 0.62673116 15613696
0.31075791 -0.092754103 0.67602456 15877120
0.29111996 -0.088156484 0.64251548 15679488
0.29932579 -0.091972493 0.6703279 15811328
0.27731088 -0.086471803 0.63023692 15613696
nan nan nan 2143289344
nan nan nan 2143289344
nan nan nan 2143289344
nan nan nan 2143289344
nan nan nan 2143289344
0.44368786 -0.15162568 1.1051012 16739328
0.38376638 -0.13324545 0.97113979 16736000
0.40000841 -0.14113203 1.0286199 16737536
0.30021957 -0.1076589 0.78465599 16272384
0.30326408 -0.11055357 0.80575335 16403968
0.29611355 -0.10975904 0.79996252 16338432
0.28361374 -0.10691339 0.77922237 16272128
0.29538018 -0.11326735 0.82553232 16470016
0.26885232 -0.10489506 0.76451212 16140800
0.29185829 -0.11588681 0.84462386 16535808
0.25954157 -0.10490504 0.76458484 16140544
0.30800778 -0.12676202 0.92388618 16734464
0.32238102 -0.13512939 0.98487055 16735744
0.35822129 -0.15296914 1.114893 16739072
0.38430998 -0.16723609 1.2188755 16741376
0.34135452 -0.15141839 1.1035905 16738560
0.35517403 -0.160647 1.1708519 16740096
0.28552178 -0.13172503 0.96005839 16734976
0.28166741 -0.13258925 0.96635711 16735232
0.27176791 -0.13057604 0.95168412 16734720
0.2668401 -0.13090838 0.95410633 16734720
0.28779554 -0.14421673 1.0511023 16737024
0.24769858 -0.12683576 0.92442364 16733952
0.27279618 -0.14279802 1.0407622 16736768
0.28999022 -0.1552459 1.1314868 16738816
0.28935131 -0.15849333 1.1551552 16739328
0.31059778 -0.17415574 1.2693083 16742144
0.25992694 -0.1492656 1.0879002 16737792
0.26366317 -0.15515026 1.1307898 16738816
0.27023456 -0.16303299 1.1882418 16740096
0.26010439 -0.16097674 1.1732551 16739584
0.22923066 -0.14562342 1.0613548 16737024
0.20916778 -0.13648121 0.99472314 16735488
0.22637703 -0.15181746 1.1064991 16738048
0.25010371 -0.17251585 1.2573563 16741632
0.23910673 -0.16976428 1.2373018 16741120
0.25263101 -0.18477042 1.3466718 16743680
0.24155787 -0.18214826 1.3275607 16743168
0.23310934 -0.18138926 1.3220288 16742912
0.23673166 -0.19027057 1.3867589 16744448
0.22625968 -0.18803081 1.3704346 16744192
nan nan nan 2143289344
nan nan nan 2143289344
nan nan nan 2143289344
nan nan nan 2143289344
nan nan nan 2143289344
nan nan nan 2143289344
0.2057661 -0.22387353 1.631669 16750080
0.21121341 -0.24035364 1.7517821 16752896
0.1950887 -0.23267575 1.6958228 16751616
0.19651435 -0.24619554 1.7943597 16753920
0.17657891 -0.23295389 1.69785 16751616
0.17236558 -0.24011697 1.7500571 16752640
0.15300304 -0.22576018 1.6454196 16750336
0.14937994 -0.23426701 1.7074205 16751616
0.13674575 -0.22882076 1.6677262 16750848
0.13142653 -0.23569646 1.7178388 16751872
0.11987947 -0.23158801 1.6878949 16751104
0.11086608 -0.2320812 1.6914895 16751360
0.098193444 -0.22429086 1.6347107 16749824
0.089438088 -0.22476819 1.6381897 16750080
0.080939375 -0.22605368 1.6475588 16750080
0.06961859 -0.21877757 1.594528 16749056
0.061488032 -0.22086391 1.6097339 16749312
0.05290192 -0.22172178 1.6159865 16749312
0.043547049 -0.21904045 1.5964439 16749056
0.034904033 -0.21947747 1.5996292 16749056
0.025465699 -0.21352014 1.5562099 16748032
0.01681545 -0.21149717 1.5414658 16747776
0.0086239902 -0.2169438 1.5811627 16748544
9.6941061e-17 -0.21721889 1.5831677 16748544
-0.0084618852 -0.2128659 1.5514417 16747776
-0.017971784 -0.22604099 1.6474663 16750080
-0.025919575 -0.21732572 1.5839463 16748544
-0.035206605 -0.22138007 1.6134959 16749312
-0.042628564 -0.2144205 1.562772 16748288
-0.053355735 -0.22362381 1.6298491 16749824
-0.059635073 -0.2142081 1.5612241 16748032
-0.071908966 -0.2259751 1.646986 16750080
-0.078022644 -0.21790761 1.5881873 16748800
-0.088789992 -0.22313944 1.6263188 16749824
-0.094748065 -0.21642101 1.5773524 16748544
-0.10237779 -0.21431227 1.5619832 16748288
-0.11517693 -0.22250347 1.6216836 16749568
-0.12228184 -0.21929665 1.5983112 16749056
-0.12897335 -0.21581495 1.5729353 16748544
-0.1491209 -0.23386076 1.7044595 16751616
-0.14814143 -0.21858674 1.5931371 16749056
-0.15779947 -0.2198254 1.6021649 16749312
-0.16356352 -0.21578316 1.5727037 16748544
-0.16987382 -0.21281996 1.5511068 16748032
-0.18161479 -0.21660586 1.5786998 16748800
-0.19342452 -0.22011051 1.6042428 16749312
-0.19696525 -0.2142982 1.5618808 16748544
-0.212464 -0.22142515 1.6138244 16749568
nan nan nan 2143289344
-0.22305405 -0.21436562 1.5623721 16748544
-0.23956737 -0.22159085 1.6150321 16749824
nan nan nan 2143289344
nan nan nan 2143289344
nan nan nan 2143289344
nan nan nan 2143289344
nan nan nan 2143289344
nan nan nan 2143289344
nan nan nan 2143289344
nan nan nan 2143289344
nan nan nan 2143289344
nan nan nan 2143289344
nan nan nan 2143289344
nan nan nan 2143289344
-0.38061443 -0.23555952 1.7168407 16752640
-0.39524552 -0.23845233 1.7379245 16753408
-0.41011775 -0.24133015 1.7588991 16753920
nan nan nan 2143289344
nan nan nan 2143289344
nan nan nan 2143289344
nan nan nan 2143289344
nan nan nan 2143289344
nan nan nan 2143289344
nan nan nan 2143289344
nan nan nan 2143289344
nan nan nan 2143289344
nan nan nan 2143289344
nan nan nan 2143289344
nan nan nan 2143289344
-0.26699427 -0.11843359 0.8631857 16601600
-0.2815294 -0.12251016 0.89289719 16733440
-0.25821027 -0.11026202 0.80362839 16338176
-0.27214384 -0.11407194 0.83139646 16470016
-0.2428342 -0.099939533 0.72839451 15943168
-0.25412783 -0.10271683 0.74863648 16074752
-0.24461736 -0.097129077 0.7079109 15877120
-0.25537685 -0.099637479 0.72619301 16008704
-0.24631703 -0.094453447 0.68840998 15811072
-0.24329112 -0.091713034 0.66843688 15745280
-0.24521366 -0.090892211 0.66245449 15679488
-0.25440681 -0.092742868 0.67594266 15745536
-0.26375422 -0.094582409 0.68934989 15811328
-0.25745603 -0.090836324 0.66204709 15745280
-0.26215541 -0.09102156 0.66339719 15745280
-0.28238037 -0.096500531 0.70332986 15942912
-0.28733462 -0.096665382 0.70453131 15942912
-0.26425463 -0.087532416 0.63796705 15613696
-0.31958616 -0.10424872 0.75980139 16206592
-0.32255819 -0.10363299 0.75531369 16206592
-0.35662127 -0.11286853 0.82262552 16536064
-0.35711259 -0.11135577 0.81160009 16535808
-0.39102209 -0.12014759 0.875678 16733952
-0.41092074 -0.12443436 0.90692145 16734976
-0.49572298 -0.14796194 1.0783987 16739328
0.31629229 -0.096837081 0.67829102 15877120
0.34483927 -0.10709832 0.7501654 16206592
0.30601466 -0.096422739 0.67538875 15876864
0.31685752 -0.10130544 0.70958942 16008960
0.30899557 -0.10025702 0.70224583 15943168
0.38154948 -0.12565258 0.88012791 16733952
nan nan nan 2143289344
nan nan nan 2143289344
nan nan nan 2143289344
nan nan nan 2143289344
nan nan nan 2143289344
0.38310966 -0.13840875 0.96947795 16736000
0.37494591 -0.13765122 0.96417183 16735744
0.27805719 -0.10375284 0.72673219 16008960
0.31628376 -0.11997304 0.8403458 16536064
0.30997744 -0.11955482 0.83741635 16535808
0.31116143 -0.12205217 0.854909 16601856
0.29215318 -0.11657058 0.81651342 16404224
0.28079864 -0.11399642 0.79848284 16338176
0.32493758 -0.1342508 0.94035381 16734976
0.28257304 -0.11884341 0.83243334 16470016
0.32687151 -0.1399779 0.98046899 16735744
0.30273297 -0.13203681 0.92484593 16734464
0.3552224 -0.1578366 1.1055595 16738816
0.36496466 -0.16525483 1.1575201 16740096
0.34138653 -0.15757027 1.103694 16738560
0.35892615 -0.16892405 1.183221 16740608
0.27937767 -0.1341145 0.93939906 16734464
0.2850537 -0.13962184 0.97797495 16735488
0.2943944 -0.14718035 1.0309182 16736768
0.27196917 -0.13883245 0.97244573 16735232
0.28260866 -0.14735743 1.0321585 16736768
0.27415651 -0.14607361 1.0231661 16736512
0.28865209 -0.15722209 1.1012552 16738304
0.28829426 -0.16059341 1.1248693 16738816
0.28576291 -0.16287197 1.1408294 16739072
0.30212522 -0.17627122 1.2346839 16741376
0.24293478 -0.14516205 1.0167811 16736000
0.26436114 -0.16186599 1.1337831 16738816
0.28144413 -0.17667773 1.2375313 16741376
0.25540629 -0.16447578 1.1520633 16739328
0.27378008 -0.18097365 1.2676219 16741888
0.2291756 -0.15559708 1.0898727 16737792
0.2426735 -0.16934279 1.186154 16739840
0.25783125 -0.18505439 1.2962052 16742656
0.24869157 -0.18372598 1.2869004 16742400
0.23783584 -0.18099979 1.2678049 16741888
0.24066463 -0.18883003 1.3226516 16743168
0.22192951 -0.17968917 1.2586248 16741632
0.22305758 -0.18654655 1.3066571 16742656
nan nan nan 2143289344
nan nan nan 2143289344
nan nan nan 2143289344
nan nan nan 2143289344
nan nan nan 2143289344
nan nan nan 2143289344
nan nan nan 2143289344
0.21167824 -0.23964043 1.6785507 16751104
0.20986718 -0.24850135 1.7406166 16752640
0.19561864 -0.24276397 1.7004293 16751616
0.20229195 -0.26370567 1.8471146 16755200
0.17521527 -0.24052382 1.6847383 16751360
0.17805602 -0.25809759 1.8078331 16754176
0.15902738 -0.24415979 1.7102064 16751872
0.14961104 -0.24413919 1.7100621 16751872
0.13882571 -0.24171656 1.6930929 16751360
0.1329121 -0.24802162 1.7372563 16752384
0.1196477 -0.2405086 1.6846318 16751104
0.11499 -0.25047034 1.7544082 16752896
0.098177865 -0.23334453 1.6344513 16749824
0.095252268 -0.24908215 1.7446848 16752640
0.082237706 -0.23898889 1.673987 16750848
0.077424504 -0.25316924 1.7733126 16753152
0.064577401 -0.24136242 1.6906123 16751104
0.055355623 -0.24140911 1.6909393 16751104
0.046591096 -0.2438504 1.7080393 16751616
0.037274539 -0.24388304 1.7082679 16751616
0.028135046 -0.24546291 1.719334 16751872
0.01877876 -0.24576381 1.7214416 16751872
0.0092491359 -0.24210016 1.6957798 16751360
1.0462614e-16 -0.2439411 1.7086746 16751616
-0.0092707332 -0.24266548 1.6997396 16751360
-0.018886747 -0.24717705 1.7313406 16752128
-0.027778702 -0.24235399 1.6975577 16751360
-0.036669854 -0.23992667 1.6805556 16750848
-0.046024226 -0.2408835 1.6872578 16751104
-0.056197781 -0.24508181 1.7166646 16751872
-0.06431289 -0.24037381 1.6836876 16751104
-0.075783603 -0.24780369 1.7357298 16752384
-0.084375016 -0.24520005 1.7174928 16751872
-0.092823736 -0.24273162 1.7002028 16751360
-0.10031474 -0.23842336 1.6700258 16750848
-0.11356557 -0.24736767 1.7326758 16752384
-0.12210238 -0.24544284 1.7191935 16751872
-0.13253452 -0.247317 1.7323209 16752384
-0.13696499 -0.23847678 1.6704 16750848
-0.15383881 -0.25103816 1.7583857 16752896
-0.15490274 -0.23782712 1.6658494 16750848
-0.17116666 -0.24811126 1.7378843 16752384
-0.17337199 -0.23799346 1.6670146 16750848
-0.19819653 -0.25836691 1.8097196 16754176
-0.19392155 -0.24065785 1.6856773 16751360
-0.2105782 -0.24934325 1.7465136 16752896
-0.2114305 -0.23935999 1.6765864 16751104
-0.2239313 -0.24283502 1.700927 16751872
-0.22768778 -0.23691617 1.6594687 16750848
-0.24247184 -0.24247184 1.6983832 16751872
-0.24287072 -0.23375142 1.6373013 16750336
-0.26986873 -0.25032142 1.7533653 16753152
-0.26632962 -0.23838377 1.6697484 16751104
-0.26994982 -0.2334317 1.6350619 16750336
-0.29102436 -0.24338822 1.7048019 16752128
-0.30066204 -0.24343637 1.7051392 16752128
-0.30907151 -0.24250337 1.6986041 16752128
-0.31705362 -0.24128674 1.6900822 16751872
-0.31969264 -0.23617947 1.6543086 16751104
-0.33025575 -0.23703596 1.6603078 16751360
nan nan nan 2143289344
nan nan nan 2143289344
-0.36552778 -0.24162056 1.6924204 16752128
-0.39939371 -0.25720039 1.8015486 16754944
-0.3988955 -0.25040829 1.7539737 16753664
-0.40103766 -0.24555181 1.7199566 16752896
nan nan nan 2143289344
nan nan nan 2143289344
nan nan nan 2143289344
nan nan nan 2143289344
nan nan nan 2143289344
nan nan nan 2143289344
nan nan nan 2143289344
nan nan nan 2143289344
nan nan nan 2143289344
nan nan nan 2143289344
nan nan nan 2143289344
nan nan nan 2143289344
nan nan nan 2143289344
nan nan nan 2143289344
nan nan nan 2143289344
nan nan nan 2143289344
-0.24327506 -0.10417896 0.7297169 16008704
-0.25520673 -0.10733379 0.75181478 16074752
-0.23699428 -0.09791626 0.68585008 15811072
-0.24598618 -0.099863529 0.69948965 15876864
-0.25146517 -0.10033586 0.70279807 15877120
-0.24107392 -0.094560549 0.66234517 15679488
-0.25086865 -0.096757226 0.67773163 15745536
-0.25839722 -0.098015465 0.68654495 15811328
-0.26178411 -0.0976808 0.68420082 15811328
-0.26515314 -0.09734378 0.68184018 15811328
-0.26632124 -0.09621577 0.67393905 15811072
-0.2592966 -0.092203408 0.64583468 15679232
-0.26879677 -0.094094016 0.65907735 15745280
-0.26670483 -0.091924697 0.64388239 15679232
-0.32509962 -0.11034539 0.7729094 16272384
nan nan nan 2143289344
nan nan nan 2143289344
nan nan nan 2143289344
nan nan nan 2143289344
nan nan nan 2143289344
-0.52759582 -0.16385786 1.147735 16741120
0.29639325 -0.094284929 0.63561738 15679488
0.30283764 -0.097722977 0.65879482 15811072
0.30413887 -0.099570356 0.67124879 15811328
0.27708071 -0.092044108 0.620511 15547904
0.25217932 -0.085014485 0.57312113 15350016
0.33403349 -0.11429612 0.77052182 16272384
0.29952395 -0.10403929 0.7013759 15942912
nan nan nan 2143289344
nan nan nan 2143289344
nan nan nan 2143289344
nan nan nan 2143289344
0.43261036 -0.16238962 1.0947419 16739072
0.42519903 -0.1621902 1.0933975 16739072
0.3358075 -0.13018988 0.87766886 16733696
0.34808904 -0.1371886 0.9248504 16734720
0.29393584 -0.11779055 0.79407936 16338176
0.28993878 -0.11816448 0.79660022 16338176
0.27759185 -0.11508162 0.77581728 16206592
0.2910769 -0.12277921 0.82771021 16470016
0.28494281 -0.12231946 0.82461083 16469760
0.2696304 -0.11782409 0.7943055 16272384
0.28813195 -0.12820199 0.86426759 16601856
0.28125978 -0.12745704 0.8592456 16601600
0.32407612 -0.14961506 1.0086229 16736512
0.37330115 -0.17562388 1.18396 16740608
0.34579244 -0.16583046 1.1179382 16739072
0.37213704 -0.18197435 1.2267715 16741632
0.30284193 -0.15105008 1.018297 16736512
0.30475712 -0.15509629 1.0455743 16737024
0.30013636 -0.15590492 1.0510255 16737280
0.29439947 -0.15614542 1.0526469 16737280
