# .PCD v0.7 - Point Cloud Data file format
VERSION 0.7
FIELDS x y z rgb
SIZE 4 4 4 4
TYPE F F F U
COUNT 1 1 1 1
WIDTH 1059
HEIGHT 1
VIEWPOINT 0 0 0 1 0 0 0
POINTS 1059
DATA ascii
-0.03288037 0.0068125967 0.24975121 13637120
-0.034921464 0.006942675 0.25451991 13637376
-0.035602722 0.006802408 0.24937768 13637120
-0.039602496 0.0072825104 0.26697835 13703168
-0.036039837 0.0063871592 0.23415458 13571328
-0.040937833 0.0070010237 0.25665897 13637376
-0.042174239 0.0069679259 0.2554456 13637376
-0.042557575 0.0068002762 0.24929954 13637120
-0.041660067 0.0064447527 0.23626597 13571328
-0.04724288 0.0070823049 0.25963876 13702912
-0.045340668 0.0065927729 0.24169242 13571584
-0.047227219 0.0066662454 0.24438594 13637120
-0.04758434 0.0065254029 0.23922263 13571584
-0.047285482 0.0063045141 0.2311248 13571328
-0.051013771 0.0066175913 0.24260227 13637120
-0.052547231 0.0066365562 0.24329753 13637120
-0.05538794 0.0068149869 0.24983884 13637376
-0.059188236 0.0070991185 0.26025516 13703168
-0.058109909 0.0067981011 0.24921981 13637376
-0.052963972 0.0060467692 0.22167581 13505536
-0.060824964 0.0067804065 0.24857111 13637376
-0.057807781 0.0062951525 0.2307816 13571328
-0.054846659 0.0058374256 0.21400124 13505536
-0.061588991 0.0064094593 0.2349721 13571584
-0.064680703 0.0065845689 0.24139167 13637120
-0.057812776 0.005759567 0.21114692 13505280
-0.05761734 0.0056195813 0.20601504 13439744
-0.056818709 0.0054273908 0.19896929 13439488
-0.059021968 0.0055235694 0.2024952 13439744
-0.067249402 0.0061681075 0.22612409 13571328
-0.062387999 0.005610052 0.20566568 13439744
-0.06616731 0.0058351341 0.21391723 13505536
-0.06402652 0.0055391439 0.20306617 13439744
-0.063909963 0.0054256953 0.19890711 13439488
-0.069658503 0.0058048218 0.21280599 13505536
-0.0717666 0.0058719753 0.21526784 13505536
-0.072618306 0.0058353906 0.21392664 13505536
-0.075089924 0.0059275888 0.21730663 13505536
-0.065993614 0.0051189107 0.18766034 13373952
-0.075772032 0.0057765259 0.21176864 13505536
-0.068378597 0.0051245932 0.18786864 13373952
-0.078424528 0.0057792081 0.21186697 13505536
-0.069015339 0.0050018635 0.18336935 13373696
-0.077515975 0.0055263271 0.20259631 13505280
-0.07064914 0.0049556172 0.18167396 13373696
-0.087803647 0.006060835 0.22219147 13571328
-0.078585759 0.0053391666 0.19573496 13439744
-0.072479688 0.0048476774 0.17771687 13373696
-0.087984465 0.0057941102 0.21241328 13505536
-0.091854692 0.0059568756 0.2183803 13571328
-0.085977733 0.0054917447 0.20132852 13505280
-0.093038537 0.0058541372 0.21461388 13571328
-0.10185703 0.0063144132 0.23148771 13637120
-0.096189193 0.0058759013 0.21541177 13571328
-0.091586895 0.0055137873 0.20213658 13505536
-0.095610604 0.0056735049 0.20799188 13505536
0.11238971 0.0052590859 0.2410205 13703168
0.12902896 0.006124686 0.28069037 13900800
0.090361334 0.0043516154 0.1994317 13505280
0.18343616 0.0089636389 0.41079777 14493696
0.17475046 0.0086658578 0.39715064 14427904
0.18292075 0.0092069171 0.42194703 14559488
0.1755123 0.0089677423 0.41098583 14493696
0.15272403 0.0079227462 0.36309433 14295808
0.15686287 0.0082632732 0.37870046 14361856
0.15139711 0.0081000226 0.3712188 14296064
0.1679949 0.0091301296 0.41842791 14493696
0.16313824 0.0090079689 0.41282937 14493696
0.15073834 0.0084579643 0.38762301 14361856
0.14147668 0.0080682887 0.36976442 14295808
0.15600963 0.0090445895 0.41450766 14493696
0.14680539 0.0086538559 0.3966006 14427648
0.14361428 0.0086097 0.39457697 14362112
0.15122755 0.0092223147 0.42265269 14493696
0.13366325 0.0082935197 0.38008663 14296064
0.13420039 0.0084742522 0.3883695 14361856
0.13850744 0.0089032408 0.40802976 14427904
0.14197144 0.0092921043 0.42585111 14493696
0.13498142 0.0089978753 0.41236681 14427904
0.13303615 0.009034575 0.4140487 14427904
0.12837082 0.0088838311 0.40714023 14427648
0.13146605 0.0092741093 0.42502639 14493696
0.12131012 0.0087259775 0.39990586 14361856
0.12055214 0.0088448329 0.40535298 14427648
0.11973832 0.0089637656 0.41080356 14427648
0.12792784 0.0097749839 0.44798118 14559744
0.11767359 0.0091808103 0.42075059 14427904
0.12435372 0.0099100536 0.4541713 14625280
0.10609055 0.0086393403 0.39593536 14361856
0.1150829 0.0095803272 0.43906018 14559488
0.11144546 0.0094882213 0.43483901 14493696
0.11271597 0.0098187597 0.44998738 14559744
0.10717083 0.0095565617 0.43797103 14493696
0.10594213 0.0096752625 0.44341099 14559488
0.10511129 0.0098364418 0.45079774 14559488
0.10664177 0.010231695 0.46891198 14625536
0.094777994 0.0093284296 0.42751589 14493440
0.09772139 0.0098726507 0.45245719 14559488
0.083731391 0.0086886445 0.39819497 14296064
0.0987918 0.010536488 0.48288044 14691328
0.087964796 0.0096494686 0.44222888 14493696
0.095225856 0.010752143 0.49276376 14757120
0.089218788 0.01037738 0.47558862 14691072
0.093782514 0.011246343 0.51541263 14823168
0.08558818 0.01059135 0.48539469 14691328
0.087313592 0.011160477 0.51147741 14823168
0.090222619 0.011924025 0.54647034 14955008
0.078264721 0.010706658 0.4906792 14757120
0.077716552 0.011017667 0.50493252 14757376
0.076134995 0.011199382 0.51326042 14823168
0.071497582 0.01092753 0.50080162 14757120
0.067541987 0.010741365 0.49226978 14757120
0.064856082 0.010749243 0.49263084 14757120
0.064169638 0.011103097 0.50884771 14822912
0.061034337 0.011045595 0.50621241 14757376
0.060671937 0.011507805 0.52739525 14888960
0.055182371 0.010994409 0.50386661 14757120
0.060293235 0.01264985 0.57973439 15086592
0.053014655 0.011745024 0.53826684 14954752
0.055632036 0.013054429 0.59827602 15218176
0.049579818 0.012365435 0.56669986 15020800
0.055230301 0.014697538 0.67357862 15547648
0.055063922 0.015704453 0.71972489 15745280
0.057299647 0.017603898 0.80677521 16140544
0.060287334 0.02007026 0.91980696 16601856
0.052632093 0.019119008 0.87621176 16404224
0.049105879 0.019625984 0.89944607 16535808
0.049546558 0.022006495 1.0085434 16734976
0.04574585 0.022862034 1.0477521 16736000
0.054111902 0.030910965 1.4166294 16744448
0.051847406 0.03455808 1.5837743 16748288
0.049205925 0.039361227 1.8038995 16753408
0.039584596 0.039584596 1.8141363 16753664
0.029035162 0.038716238 1.77434 16752640
0.019160956 0.038326472 1.7564774 16752384
0.0095206397 0.038088221 1.7455585 16752128
9.8560608e-17 0.035121966 1.6096169 16748800
-0.0067996779 0.027202757 1.2466847 16740608
-0.0062706601 0.012542812 0.57482898 15086592
-0.0077372575 0.010317059 0.47282413 14625280
-0.0099234106 0.0099234106 0.45478347 14559488
-0.011967535 0.0095731737 0.43873233 14493440
-0.013935013 0.0092881657 0.42567059 14427648
-0.014081306 0.0080438266 0.36864334 14164224
-0.017007513 0.008499708 0.38953608 14230272
-0.015845086 0.0070377202 0.32253417 13966592
-0.017603993 0.0070357299 0.32244295 13966592
-0.019302431 0.0070117549 0.32134417 13966592
-0.021839447 0.0072705713 0.33320558 13966848
-0.023231501 0.0071373037 0.32709798 13966592
-0.024481328 0.0069821733 0.31998849 13966592
-0.026798133 0.0071313498 0.32682511 13966592
-0.027970336 0.0069759311 0.31970239 13966592
-0.027954867 0.0065597962 0.3006312 13835008
-0.031064039 0.0068820193 0.31539848 13900800
-0.031439353 0.006596148 0.30229717 13835008
-0.032978814 0.0065706233 0.3011274 13835008
-0.030621618 0.0058080824 0.26618063 13703168
-0.036979627 0.0066923308 0.30670518 13900800
-0.033398233 0.0057788049 0.26483887 13703168
-0.032884773 0.0054503204 0.24978465 13637120
-0.035062037 0.0055760001 0.25554448 13637376
-0.036737885 0.0056149364 0.2573289 13637376
-0.040194582 0.0059125833 0.27096987 13703168
-0.038478058 0.0054549309 0.24999596 13637120
-0.042360585 0.0057949522 0.2655789 13703168
-0.045925591 0.0060696299 0.27816722 13768960
-0.044077381 0.0056339982 0.25820246 13702912
-0.043054499 0.0053278999 0.2441742 13637120
-0.05047074 0.0060524214 0.27737856 13768960
-0.052167185 0.0060677659 0.27808177 13768960
-0.049889244 0.0056330948 0.2581611 13702912
-0.05246681 0.0057554482 0.26376846 13703168
-0.055307377 0.0058987238 0.27033469 13768960
-0.0524607 0.0054437458 0.24948333 13637376
-0.058041859 0.0058638859 0.26873806 13703168
-0.055178966 0.0054309354 0.24889624 13637376
-0.059639577 0.0057220915 0.26223975 13703168
-0.059252802 0.0055449489 0.25412139 13637376
-0.058779296 0.005368073 0.24601531 13637120
-0.060595479 0.0054033776 0.24763328 13637376
-0.061702278 0.0053749247 0.24632931 13637376
-0.067512617 0.0057478757 0.26342142 13703168
-0.063371643 0.0052755107 0.24177322 13637120
-0.063136816 0.0051414608 0.23562981 13571584
-0.060460724 0.0048182639 0.22081789 13505536
-0.06058709 0.0047269617 0.21663359 13505536
-0.059022505 0.0045099175 0.20668659 13439744
-0.057910822 0.0043352791 0.19868302 13439488
-0.061273549 0.0044956007 0.20603047 13439744
-0.062106136 0.0044673663 0.2047365 13439744
-0.069425888 0.0048975633 0.22445214 13571328
-0.07215222 0.0049932543 0.22883759 13571328
-0.067588478 0.0045899795 0.21035577 13505536
-0.069356814 0.0046233325 0.21188432 13505536
-0.061974172 0.0040562414 0.18589492 13373696
-0.070699856 0.004544578 0.20827505 13505280
-0.081303887 0.0051340363 0.23528954 13637120
-0.071972519 0.0044657416 0.20466202 13505280
-0.077466227 0.0047241254 0.21650361 13505536
-0.074542649 0.0044688443 0.20480424 13505280
-0.083640896 0.0049304473 0.2259592 13571328
-0.081350394 0.0047162529 0.21614282 13505536
-0.077169091 0.0044008847 0.20168968 13439744
-0.084427968 0.0047372733 0.21710615 13571328
-0.082303979 0.0045445608 0.20827429 13505536
-0.080831252 0.004392989 0.20132785 13505280
-0.094387226 0.0050498894 0.23143317 13637120
-0.08761365 0.0046153404 0.21151806 13505536
-0.090704113 0.0047053876 0.21564487 13571328
-0.091878921 0.0046945228 0.21514694 13571328
-0.09861815 0.0049637291 0.22748449 13637120
-0.097038858 0.004812147 0.22053757 13571328
-0.10313188 0.0050395573 0.23095964 13637120
-0.09531264 0.0045900601 0.21035947 13505536
-0.10606264 0.0050345315 0.23072931 13637376
0.13648742 0.004789691 0.29269823 13966592
0.14073557 0.0050099292 0.30615699 14032384
0.20838915 0.0075261714 0.45992467 14757120
0.15940224 0.0058415076 0.35697478 14230272
0.20416524 0.0075928732 0.46400079 14757120
0.16106656 0.0060797785 0.37153554 14296064
0.16257194 0.0062294872 0.38068423 14361856
0.15584125 0.0060629211 0.37050539 14296064
0.1568792 0.0061976705 0.37873989 14361856
0.14801459 0.0059388764 0.36292499 14230272
0.15311107 0.006240488 0.38135651 14361856
0.14514937 0.0060105934 0.36730763 14295808
0.15002926 0.0063131945 0.38579962 14361856
0.14292061 0.0061125518 0.37353832 14296064
0.13454151 0.0058495817 0.35746822 14230016
0.13363111 0.0059075356 0.36100975 14230016
0.13815764 0.0062114992 0.379585 14296064
0.14113796 0.006454817 0.39445415 14361856
0.12671135 0.0058962181 0.36031815 14230016
0.13323469 0.0063095167 0.38557482 14296064
0.12920137 0.0062283534 0.38061497 14296064
0.12933712 0.0063484451 0.38795376 14361856
0.12348665 0.0061732959 0.37725037 14295808
0.11806276 0.0060128742 0.36744699 14230016
0.12086755 0.0062729931 0.38334289 14296064
0.11788857 0.0062367944 0.38113078 14296064
0.11871054 0.006403795 0.3913362 14361856
0.11258405 0.0061947349 0.37856051 14295808
0.11023787 0.0061889826 0.37820899 14295808
0.1169591 0.0067021796 0.40957049 14427648
0.11310768 0.0066179764 0.40442482 14362112
0.1201419 0.0071803038 0.43878868 14559488
0.11645298 0.0071118986 0.43460843 14493696
0.11078517 0.0069164345 0.4226636 14427904
0.10326535 0.0065933801 0.40292177 14361856
0.1039816 0.0067929556 0.4151178 14427648
0.10623137 0.0071040988 0.43413177 14493696
0.10084139 0.0069065946 0.42206231 14427904
0.10307882 0.0072341785 0.44208097 14559488
0.10576595 0.0076102205 0.46506092 14625536
0.089161187 0.0065812441 0.40218011 14361856
0.088866062 0.0067330408 0.41145641 14362112
0.088678107 0.0069009876 0.42171964 14427904
0.087779544 0.0070210076 0.42905408 14493440
0.098312363 0.0080878623 0.49424961 14757120
0.091062091 0.0077109681 0.4712176 14625536
0.086462751 0.0075420872 0.4608973 14625280
0.088422492 0.0079521276 0.48595488 14691328
0.088201463 0.0081854854 0.50021535 14757376
0.097249545 0.0093222251 0.56968158 15086592
0.087626033 0.0086850384 0.53074306 14888960
0.077957891 0.0079979571 0.48875552 14691328
0.080310397 0.0085384492 0.52178502 14888704
0.093748219 0.010341985 0.63199919 15350016
0.059775941 0.0068515399 0.41869789 14427648
0.065510318 0.0078131547 0.47746226 14691072
0.065515377 0.0081433207 0.4976387 14757120
0.06342572 0.0082302131 0.50294864 14757120
0.061399754 0.0083332155 0.50924319 14822912
0.06113534 0.0086961715 0.53142339 14888960
0.057474017 0.0085876472 0.52479148 14888704
0.055024602 0.0086577451 0.52907515 14888960
0.048609994 0.0080763409 0.49354556 14691328
0.05221254 0.0091883782 0.56150216 15020800
0.051327862 0.0096003879 0.58668011 15152384
0.053928688 0.010762624 0.65770441 15481600
0.051408514 0.010995674 0.67194611 15547648
0.054968055 0.012664801 0.77394658 16008704
0.058200993 0.014530763 0.88797557 16470016
0.049639992 0.013523139 0.82639962 16206592
0.047203239 0.01414819 0.86459649 16403968
0.045332462 0.015100029 0.92276347 16667392
0.038205467 0.014319235 0.87504911 16404224
0.051331513 0.021990493 1.3438399 16742656
0.048941195 0.024464045 1.4949989 16746240
0.048965678 0.029374743 1.7950919 16753152
0.038956169 0.029215099 1.785336 16752896
0.029627129 0.029627129 1.8105152 16753664
0.020264521 0.030398289 1.8576407 16754688
0.0093034953 0.027912699 1.7057463 16751104
1.0101984e-16 0.026996857 1.6497791 16749824
-0.0074984208 0.022497047 1.3747954 16743424
-0.013218837 0.01982924 1.2117656 16739584
-0.017537428 0.017537428 1.071713 16736512
-0.014199589 0.010648953 0.65075797 15416064
-0.015076848 0.0090446733 0.55272037 14955008
-0.015703058 0.007849426 0.47967878 14625536
-0.013433972 0.0057551325 0.3516964 14098176
-0.014087176 0.0052798092 0.32264939 13966592
-0.014522088 0.0048372387 0.29560387 13834752
-0.018368928 0.0055057043 0.33645383 14032384
-0.019064635 0.0051936693 0.31738538 13900800
-0.020730017 0.005175564 0.31627893 13900800
-0.023163086 0.005336843 0.32613471 13966592
-0.025094068 0.0053673242 0.32799742 13966592
-0.024676461 0.0049247155 0.3009496 13835008
-0.028583257 0.005346226 0.32670811 13966592
-0.02508794 0.0044149831 0.2697998 13703168
-0.02998923 0.0049825814 0.30448577 13900544
-0.031235769 0.004914735 0.30033967 13835008
-0.029716678 0.0044402038 0.27134106 13703168
-0.028567916 0.0040636314 0.2483287 13637120
-0.033033784 0.0044833678 0.2739788 13768960
-0.031650309 0.0041069901 0.25097832 13637120
-0.033932269 0.0042176563 0.25774115 13637376
-0.036424823 0.004344244 0.26547694 13703168
-0.037730914 0.004324731 0.26428449 13703168
-0.038438238 0.0042403759 0.25912955 13702912
-0.040611506 0.0043177386 0.26385719 13703168
-0.040002633 0.0041040024 0.25079578 13637376
-0.043324396 0.0042940895 0.26241198 13703168
-0.041558195 0.0039837188 0.24344523 13637120
-0.046705108 0.00433444 0.26487783 13703168
-0.046180166 0.0041531357 0.25379828 13637376
-0.049222928 0.004293683 0.26238716 13703168
-0.051222429 0.0043374193 0.26505989 13703168
-0.052277207 0.0043006884 0.26281527 13703168
-0.050302889 0.0040234542 0.24587345 13637120
-0.054112162 0.0042110435 0.25733706 13702912
-0.051293239 0.0038862918 0.23749146 13571584
-0.055184714 0.0040733428 0.24892215 13637376
-0.060089249 0.0043236264 0.26421699 13703168
-0.057669651 0.0040473156 0.24733163 13637376
-0.049026571 0.0033578144 0.20519619 13439744
-0.0553734 0.0037030312 0.2262924 13571328
-0.053691432 0.0035075773 0.21434821 13505536
-0.053866778 0.0034393354 0.21017793 13505280
-0.052477185 0.0032762056 0.20020908 13439488
-0.059002843 0.003603362 0.22020161 13505536
-0.057298444 0.0034244526 0.20926845 13505280
-0.053052887 0.0031041459 0.18969449 13373696
-0.059303202 0.0033982883 0.20766954 13439744
-0.059036016 0.0033144045 0.20254341 13439744
-0.06127993 0.0033718178 0.20605193 13439744
-0.057468671 0.0031001258 0.18944882 13373696
-0.056432873 0.0029855331 0.18244606 13373696
-0.061636437 0.0031989145 0.1954858 13439488
-0.061784137 0.0031466335 0.19229092 13373952
-0.066253543 0.0033121209 0.20240386 13439744
-0.065775357 0.0032285491 0.19729678 13439488
-0.062993705 0.0030367097 0.18557346 13373696
-0.072495356 0.0034331193 0.20979807 13505536
-0.074633658 0.0034729033 0.21222928 13505536
-0.076463759 0.003497001 0.21370189 13505536
-0.074892387 0.0033671246 0.20576514 13505280
-0.0725426 0.0032069478 0.19597672 13439488
-0.072201595 0.0031391736 0.19183503 13439488
-0.07717713 0.0033007779 0.20171069 13439744
-0.08190003 0.0034463333 0.21060558 13505536
-0.079372816 0.0032868055 0.20085683 13439744
-0.081957266 0.0033404073 0.20413244 13505280
-0.084579766 0.0033936435 0.2073857 13505536
-0.087622777 0.0034616257 0.21154009 13505536
-0.08722458 0.0033934261 0.20737241 13505536
-0.087961629 0.0033705437 0.20597407 13505536
-0.087095253 0.0032875838 0.2009044 13505280
-0.091813952 0.0034145464 0.20866308 13505536
-0.10314262 0.003779799 0.23098369 13637120
-0.090370737 0.0032638249 0.19945247 13505280
-0.096050978 0.0034192393 0.20894986 13505536
0.16523391 0.0038654604 0.35434526 14230272
0.1186109 0.0028147481 0.25802687 13768960
0.20345247 0.0048983423 0.44902915 14691328
0.18183807 0.0044422457 0.40721893 14493696
0.20458315 0.0050720251 0.46495056 14757376
0.16545352 0.0041633756 0.38165501 14361856
0.17554364 0.004484138 0.4110592 14493696
0.14964974 0.0038811702 0.35578537 14230016
0.16071747 0.0042326604 0.38800633 14362112
0.15444507 0.0041310554 0.37869224 14361856
0.16131879 0.0043831277 0.40179962 14427904
0.14258771 0.0039361487 0.36082521 14230272
0.14424175 0.004046238 0.37091705 14296064
0.15901101 0.0045335884 0.41559228 14493696
0.14864068 0.0043081758 0.39492881 14362112
0.14370751 0.0042351177 0.38823158 14361856
0.1484279 0.0044486099 0.40780234 14427904
0.14485402 0.004416293 0.40483987 14427648
0.13866305 0.0043013617 0.39430416 14361856
0.14369518 0.0045363661 0.41584691 14493440
0.1311395 0.0042143138 0.3863245 14296064
0.14262928 0.0046670251 0.42782435 14493696
0.13065051 0.0043540699 0.39913589 14362112
0.1287775 0.0043721637 0.40079454 14362112
0.12839374 0.00444218 0.40721291 14427648
0.12794372 0.0045122788 0.41363883 14427904
0.12510525 0.0044989474 0.41241676 14427904
0.11914845 0.0043704021 0.40063307 14361856
0.11640194 0.0043564816 0.39935699 14361856
0.11834066 0.0045206747 0.41440848 14427904
0.11150015 0.0043490636 0.39867696 14361856
0.11275694 0.0044924039 0.41181692 14427648
0.11879087 0.004836211 0.44333357 14559488
0.11738524 0.0048854132 0.44784394 14559488
0.11717516 0.0049874242 0.45719522 14625280
0.1120072 0.0048779286 0.4471578 14559488
0.11503313 0.0051282165 0.47010159 14691072
0.11130557 0.0050819367 0.46585917 14625536
0.11148781 0.0052159615 0.47814515 14691328
0.10643906 0.0051055155 0.46802062 14625536
0.11210905 0.0055164546 0.50569123 14822912
0.095416747 0.0048193345 0.44178653 14493696
0.087038584 0.004515375 0.4139227 14427648
0.093999244 0.0050120763 0.45945507 14625280
0.093052544 0.0051031825 0.46780676 14625536
0.096191488 0.0054299412 0.49776059 14757120
0.089972191 0.0052318834 0.47960469 14691328
0.084132917 0.0050439849 0.46238011 14625280
0.082998894 0.0051348545 0.4707101 14625536
0.096583717 0.0061719604 0.56578124 15086592
0.089750066 0.0059300801 0.54360813 14954752
0.092296407 0.0063123493 0.57865059 15152384
0.078338884 0.0055522858 0.50897592 14822912
0.075708419 0.0055676545 0.51038474 14822912
0.079000555 0.0060364157 0.55335587 15020544
0.080738634 0.0064192656 0.58845162 15152384
0.063823514 0.005288423 0.4847877 14691328
0.06443131 0.0055735237 0.51092273 14822912
0.064875521 0.005869675 0.5380708 14954752
0.060682766 0.005754245 0.52748936 14888960
0.060635243 0.0060396944 0.55365646 15020544
0.058131814 0.0060974602 0.5589518 15020544
0.052730083 0.0058402945 0.5353775 14888960
0.053049665 0.0062234881 0.57050472 15086336
0.046625547 0.0058136219 0.53293246 14888960
0.054749861 0.0072839763 0.6677193 15481856
0.053090487 0.0075699096 0.69393069 15613696
0.056388952 0.0086610243 0.7939527 16074752
0.057420529 0.0095567983 0.876068 16404224
0.050243244 0.0091245342 0.83644253 16272128
0.048733067 0.0097373324 0.89261746 16535808
0.046807777 0.010393784 0.95279419 16733696
0.039516814 0.009873325 0.90508384 16536064
0.047594912 0.013592478 1.2460171 16740608
0.045607686 0.015197738 1.3931707 16743936
0.032609858 0.013041226 1.1954842 16739328
0.027834138 0.013915412 1.2756205 16741120
0.030038351 0.020024575 1.835645 16754176
0.020767771 0.020767771 1.9037734 16755712
0.0095714228 0.019143416 1.7548695 16752384
1.0231315e-16 0.018227421 1.6709006 16750336
-0.0084043099 0.016809119 1.5408854 16747264
-0.015728531 0.015728531 1.4418284 16744960
-0.017980473 0.011986388 1.0987875 16737024
-0.021137366 0.010567426 0.96871179 16733952
-0.013196631 0.0052775531 0.48379126 14691072
-0.017536385 0.0058436068 0.53568113 14888960
-0.013816646 0.0039458517 0.36171469 14098432
-0.015876513 0.0039667664 0.3636319 14164224
-0.015259139 0.0033883301 0.3106069 13900800
-0.018697362 0.0037359118 0.34246957 14032640
-0.019305877 0.0035060858 0.32140154 13966592
-0.020077566 0.003341614 0.30632445 13900544
-0.022810606 0.0035035801 0.32117182 13966592
-0.024790816 0.0035347997 0.32403371 13966592
-0.027538363 0.0036637315 0.33585283 14032384
-0.027713878 0.0034555735 0.31677106 13900800
-0.028237605 0.0033126769 0.30367181 13835008
-0.031853676 0.003528059 0.32341579 13966592
-0.029996844 0.0031463762 0.28842708 13769216
-0.031569514 0.0031445448 0.28825918 13769216
-0.031998448 0.0030342534 0.27814883 13768960
-0.037824105 0.003422172 0.3137092 13900800
-0.033779521 0.0029220416 0.26786241 13703168
-0.041896414 0.0034715417 0.31823486 13966592
-0.038466386 0.0030583371 0.28035659 13768960
-0.038581666 0.0029480171 0.27024356 13703168
-0.042696029 0.0031398982 0.28783324 13834752
-0.040006071 0.0028354393 0.25992361 13702912
-0.041423131 0.0028330167 0.25970155 13702912
-0.044956475 0.0029704212 0.27229735 13768960
-0.047450539 0.0030322175 0.27796221 13768960
-0.049139511 0.0030400916 0.27868402 13768960
-0.047615651 0.0028546806 0.26168746 13703168
-0.04922659 0.0028625263 0.26240668 13703168
-0.051415965 0.0029023946 0.2660614 13703168
-0.050525386 0.0027709103 0.25400826 13637376
-0.049104083 0.0026182488 0.24001385 13571584
-0.055762306 0.002892829 0.26518452 13703168
-0.059529915 0.003006753 0.27562788 13768960
-0.055838097 0.0027475778 0.25186938 13637376
-0.057210997 0.0027442146 0.25156108 13637376
-0.059263378 0.0027726393 0.25416678 13637376
-0.057395566 0.0026205394 0.24022384 13637120
-0.065359734 0.0029137593 0.26710317 13703168
-0.060498465 0.0026347162 0.24152341 13637120
-0.066283412 0.002821276 0.25862527 13703168
-0.056284066 0.002342466 0.21473294 13505536
-0.061595269 0.002507665 0.22987667 13571328
-0.062055927 0.0024724002 0.22664398 13571328
-0.056558046 0.0022060468 0.20222744 13439744
-0.060955048 0.0023285146 0.21345402 13505536
-0.052884538 0.001979267 0.18143862 13373696
-0.059574224 0.002185201 0.20031653 13439488
-0.062988028 0.0022651313 0.2076437 13505280
-0.059391893 0.0020946143 0.19201249 13373952
-0.059536207 0.0020598399 0.18882473 13373696
-0.063318156 0.0021497337 0.19706525 13439488
-0.064392038 0.0021459344 0.19671698 13439488
-0.064198993 0.0021006786 0.19256839 13439488
-0.067498274 0.002169132 0.19884349 13439744
-0.074786805 0.0023609723 0.21642943 13505536
-0.07298056 0.0022638745 0.2075285 13505280
-0.074448228 0.0022697691 0.20806886 13505536
-0.071819954 0.0021525531 0.19732371 13439744
-0.083308704 0.0024551407 0.22506179 13571328
-0.064810149 0.0018784463 0.17219645 13307904
-0.079326838 0.0022617001 0.20732918 13505536
-0.090604119 0.0025416068 0.2329881 13637120
-0.081583686 0.0022521263 0.20645154 13505536
-0.081590801 0.0022168707 0.20321967 13505280
-0.093648843 0.0025048943 0.22962268 13637120
-0.095665164 0.0025194406 0.23095614 13637120
-0.094597243 0.0024533821 0.22490059 13571584
-0.086397313 0.0022069584 0.20231101 13505280
-0.10301073 0.0025921015 0.23761694 13637376
-0.098264344 0.0024361694 0.22332272 13571584
-0.094180703 0.0023008042 0.21091384 13505536
-0.10028184 0.002414396 0.22132674 13571584
-0.10984037 0.0026066152 0.23894741 13702912
0.13100971 0.0015323665 0.28095123 13900800
0.13908166 0.0016502201 0.30255908 13966848
0.18323919 0.0022057772 0.40441751 14493696
0.15248984 0.0018625836 0.34149477 14164224
0.18969087 0.002351338 0.43110529 14625280
0.14994894 0.0018865576 0.34589028 14164480
0.16298403 0.002081594 0.38164917 14361856
0.15392125 0.0019959165 0.36594066 14295808
0.13585059 0.0017888295 0.32797235 14098432
0.14538877 0.0019443521 0.35648659 14230016
0.13897136 0.0018879111 0.34613845 14164224
0.13891895 0.0019173793 0.35154128 14164480
0.14316089 0.0020078991 0.36813763 14295808
0.14222293 0.0020274101 0.37171486 14296064
0.13561425 0.0019652515 0.36031842 14230016
0.13642409 0.0020101762 0.36855513 14230272
0.14433035 0.0021628356 0.3965444 14362112
0.13306952 0.0020284439 0.37190437 14295808
0.13468832 0.0020889698 0.38300151 14296064
0.12769845 0.00201562 0.36955318 14230272
0.13950266 0.0022414699 0.41096157 14427904
0.13093384 0.0021421032 0.3927432 14361856
0.13065633 0.0021770673 0.39915371 14362112
0.12572427 0.0021341876 0.39129195 14361856
0.12148333 0.002101484 0.38529593 14296064
0.12263052 0.0021623829 0.3964614 14361856
0.11059682 0.0019885434 0.36458886 14230016
0.1143078 0.0020963605 0.38435653 14296064
0.10661327 0.0019950049 0.36577356 14230016
0.11889511 0.0022708599 0.41635007 14427904
0.11285181 0.002200827 0.40350991 14361856
0.11408237 0.0022725379 0.41665772 14427904
0.10300845 0.0020967762 0.38443276 14296064
0.10800938 0.0022475347 0.41207349 14427648
0.11618734 0.0024726156 0.45334092 14625280
0.11249815 0.0024495819 0.44911778 14559488
0.10576865 0.0023575311 0.43224078 14493696
0.10759244 0.0024561293 0.45031822 14559488
0.10127451 0.0023689952 0.43434268 14493696
0.099791072 0.0023932462 0.43878892 14493696
0.085492373 0.0021033126 0.38563117 14295808
0.089087747 0.0022497671 0.41248283 14362112
0.088277109 0.0022897457 0.41981268 14427648
0.089994758 0.0023992064 0.43988174 14493696
0.086813904 0.0023804507 0.43644297 14493696
0.090693459 0.0025597145 0.46931002 14625536
0.087026171 0.0025302107 0.46390066 14625280
0.084673718 0.0025381278 0.46535224 14625280
0.081613429 0.0025244951 0.46285275 14625280
0.091708146 0.002930112 0.53722042 14954752
0.077211305 0.0025507258 0.46766198 14625280
0.079542264 0.002719952 0.49868873 14757120
0.07317026 0.0025929022 0.47539482 14625536
0.078939818 0.0029025606 0.53216904 14888960
0.06854558 0.0026186986 0.48012447 14691072
0.072994247 0.002901681 0.53200775 14888960
0.063173741 0.0026172136 0.47985217 14691072
0.06068074 0.0026244652 0.48118171 14691072
0.061047956 0.002761604 0.50632542 14757376
0.059771195 0.0028338181 0.51956546 14823168
0.057263125 0.0028518192 0.52286583 14888704
0.056375895 0.0029565527 0.54206818 14954752
0.051948313 0.0028767679 0.52744007 14888960
0.050922543 0.0029868844 0.54762936 14954752
0.047237709 0.0029448878 0.53992951 14954752
0.05230071 0.0034789657 0.63784987 15350272
0.052177463 0.0037197522 0.68199676 15547904
0.054620378 0.004194566 0.76905131 15942912
0.055853441 0.0046478515 0.85215884 16338176
0.050425366 0.0045786677 0.83947438 16272384
0.046990801 0.004694466 0.86070538 16338432
0.043277044 0.0048047453 0.88092446 16469760
0.035636511 0.0044517806 0.81621027 16140800
0.042596865 0.0060823699 1.1151701 16737536
0.040832806 0.0068031061 1.2473133 16740608
0.029312007 0.0058610062 1.0745844 16736512
0.026002957 0.006499772 1.1916987 16739328
0.024558594 0.0081855487 1.5007768 16746496
0.020386919 0.010193157 1.868861 16754944
0.0097191092 0.0097191092 1.781947 16752896
1.1444154e-16 0.010193763 1.8689722 16754944
-0.0090537155 0.0090537155 1.6599506 16750080
-0.017092725 0.0085461084 1.5668834 16748032
-0.021400826 0.0071330429 1.3078054 16741888
-0.024148719 0.0060362816 1.1067201 16737280
-0.014942307 0.0029877501 0.54778808 14954752
-0.019598439 0.0032652728 0.59867036 15152640
-0.015573048 0.0022236621 0.4076966 14296064
-0.018363489 0.0022940019 0.42059305 14362112
-0.015554221 0.0017268757 0.31661344 13900800
-0.017171813 0.0017154951 0.31452692 13900800
-0.018287439 0.0016605157 0.30444673 13835008
-0.019620648 0.0016327348 0.29935321 13835008
-0.019411134 0.0014906758 0.27330747 13703168
-0.024410509 0.001740235 0.31906283 13966592
-0.024434237 0.0016253294 0.29799548 13835008
-0.026059179 0.0016245783 0.29785779 13835008
-0.027498173 0.0016129175 0.29571983 13834752
-0.030580893 0.0016934935 0.31049302 13900800
-0.028963761 0.0015189628 0.27849376 13768960
-0.031788655 0.0015831392 0.29026014 13834752
-0.032114159 0.0015225677 0.27915469 13768960
-0.032918017 0.0014891002 0.2730186 13703168
-0.034656834 0.0014989213 0.27481925 13768960
-0.036807839 0.0015249054 0.27958331 13768960
-0.037244737 0.0014805598 0.27145275 13703168
-0.037170079 0.0014200367 0.26035616 13702912
-0.040790465 0.0014998362 0.27498698 13768960
-0.038638767 0.0013692249 0.2510401 13637376
-0.046307772 0.0015834968 0.2903257 13834752
-0.044144016 0.0014583264 0.26737636 13703168
-0.047957469 0.0015322603 0.28093177 13768960
-0.05087816 0.001573781 0.28854439 13834752
-0.047617778 0.0014273616 0.26169914 13703168
-0.043328706 0.0012597447 0.23096749 13571328
-0.049900375 0.0014083785 0.25821871 13702912
-0.046430808 0.00127314 0.23342343 13571328
-0.049507141 0.0013198308 0.24198394 13637120
-0.050003119 0.0012969888 0.23779599 13571584
-0.056788161 0.0014340932 0.26293337 13703168
-0.054541972 0.0013418603 0.24602294 13637120
-0.056104757 0.0013455361 0.24669689 13637120
-0.059947241 0.0014022753 0.25709969 13702912
-0.054841936 0.0012519363 0.22953585 13571328
-0.063936554 0.0014251143 0.26128712 13703168
-0.05515568 0.0012009828 0.22019382 13505536
-0.063803732 0.0013578252 0.24895003 13637376
-0.052483432 0.0010921119 0.20023291 13439488
-0.053574745 0.0010905344 0.19994368 13439488
-0.048590638 0.00096793281 0.17746533 13307904
-0.050904512 0.00099273585 0.18201283 13373696
-0.054916907 0.001048896 0.1923095 13373952
-0.059043042 0.0011048453 0.2025675 13439744
-0.058436655 0.0010717055 0.19649149 13439488
-0.058926914 0.0010595126 0.19425599 13439488
-0.059985533 0.0010577439 0.19393171 13439488
-0.062846579 0.0010871539 0.19932388 13439488
-0.063320987 0.0010748828 0.19707404 13439488
-0.063461646 0.0010574327 0.19387466 13439488
-0.067997038 0.0011124449 0.20396085 13439744
-0.063644066 0.001022606 0.18748938 13373696
-0.066298686 0.0010464728 0.19186521 13439488
-0.060709264 0.00094158005 0.17263368 13307904
-0.0667032 0.0010167896 0.18642296 13373696
-0.067034952 0.0010045398 0.18417701 13373696
-0.069774151 0.0010281054 0.18849765 13373952
-0.067631006 0.00098007359 0.17969127 13373696
-0.064679272 0.00092201313 0.16904619 13307904
-0.072848961 0.0010217411 0.1873308 13373952
-0.081219815 0.0011210075 0.20553075 13505536
-0.085320212 0.0011590661 0.21250859 13505536
-0.08572273 0.0011464101 0.21018821 13505536
-0.090311944 0.0011891937 0.21803233 13571328
-0.096927732 0.0012568743 0.23044121 13637120
-0.10328867 0.0013191788 0.24186441 13702912
-0.09824241 0.0012360205 0.22661777 13637120
-0.093033105 0.001153204 0.21143381 13505536
-0.096631266 0.0011803003 0.21640177 13571328
-0.087492593 0.001053209 0.19310026 13439744
-0.10566865 0.0012537709 0.22987221 13637120
0.1272081 6.6816394e-17 0.27279866 13835008
0.19379835 1.0325979e-16 0.42159009 14559744
0.20470269 1.1065626e-16 0.45178846 14691328
0.1659473 9.1023636e-17 0.37163219 14296064
0.19251291 1.0716122e-16 0.43751889 14625536
0.16824761 9.5057128e-17 0.38810018 14427648
0.18065968 1.0361469e-16 0.42303911 14559488
0.1531481 8.9179401e-17 0.36410254 14295808
0.152308 9.0061519e-17 0.36770406 14296064
0.14992259 9.0036849e-17 0.36760333 14295808
0.15275899 9.3190611e-17 0.38047954 14361856
0.16244204 1.0068252e-16 0.41106761 14493696
0.14932448 9.4049747e-17 0.38398725 14361856
0.14651324 9.3790317e-17 0.38292801 14361856
0.14864951 9.6735411e-17 0.3949523 14362112
0.15204744 1.0060772e-16 0.41076219 14493440
0.14399049 9.6896652e-17 0.3956106 14362112
0.13677728 9.3628382e-17 0.38226688 14296064
0.1453063 1.0120358e-16 0.41319495 14493440
0.13096635 9.2830755e-17 0.37901032 14296064
0.143362 1.0344122e-16 0.42233083 14493696
0.13125205 9.642813e-17 0.39369774 14361856
0.12350319 9.2412069e-17 0.37730089 14295808
0.13459733 1.0260276e-16 0.41890758 14493440
0.12028232 9.3437316e-17 0.38148677 14296064
0.13031533 1.0319026e-16 0.42130619 14493440
0.12627384 1.0195651e-16 0.41626903 14427904
0.12685218 1.0447135e-16 0.42653665 14493696
0.11920716 1.0017151e-16 0.40898123 14427648
0.12878206 1.104564e-16 0.4509725 14625280
0.11231481 9.8361139e-17 0.40158981 14361856
0.11566857 1.0347063e-16 0.42245093 14493440
0.10715108 9.7945609e-17 0.39989328 14361856
0.11485675 1.073274e-16 0.43819737 14559488
0.10650665 1.0178497e-16 0.41556868 14427648
0.10399552 1.0168815e-16 0.41517338 14427648
0.10695865 1.0705958e-16 0.43710393 14493696
0.1096855 1.1244181e-16 0.45907852 14625280
0.095144957 9.9944514e-17 0.40805444 14361856
0.10711068 1.1535531e-16 0.47097379 14691072
0.10302526 1.1382282e-16 0.46471691 14625536
0.10555577 1.1970456e-16 0.488731 14757120
0.092393965 1.0761973e-16 0.4393909 14493696
0.099617064 1.1925958e-16 0.48691419 14757120
0.09617953 1.1842999e-16 0.48352715 14691328
0.10226883 1.296188e-16 0.5292089 14888960
0.081127293 1.0592122e-16 0.4324562 14493440
0.097027138 1.3060724e-16 0.53324455 14954752
0.08005181 1.1119704e-16 0.45399636 14559488
0.085988179 1.2337416e-16 0.50371325 14757376
0.070696637 1.0487954e-16 0.4282032 14427904
0.076865748 1.180335e-16 0.48190835 14691328
0.075301073 1.1982898e-16 0.48923895 14691328
0.081728876 1.3494905e-16 0.55097133 15020544
0.074482597 1.2778211e-16 0.52171004 14888704
0.082374617 1.4704953e-16 0.60037524 15218176
0.065132573 1.2117414e-16 0.49473098 14757120
0.064059794 1.2441841e-16 0.50797671 14822912
0.064041458 1.3009501e-16 0.53115314 14888960
0.060800664 1.2944864e-16 0.52851421 14888960
0.055630974 1.2441501e-16 0.50796276 14757376
0.057411168 1.3520655e-16 0.55202264 14955008
0.051164947 1.2723748e-16 0.51948643 14823168
0.054811988 1.4437535e-16 0.58945709 15152384
0.052031979 1.456664e-16 0.59472823 15152640
0.054834839 1.6379789e-16 0.66875565 15481856
0.053780202 1.7217205e-16 0.70294571 15679232
0.054408658 1.8763311e-16 0.76607031 15942912
0.055985078 2.0921064e-16 0.85416722 16338176
0.051625308 2.1050476e-16 0.85945088 16338432
0.048681449 2.1839667e-16 0.89167207 16470016
0.045289464 2.2579749e-16 0.92188823 16667392
0.038646776 2.1680088e-16 0.88515675 16470016
0.043437235 2.7852648e-16 1.1371707 16738048
0.036154587 2.7050204e-16 1.1044084 16737280
0.02977599 2.6736341e-16 1.091594 16737024
0.024956228 2.8013251e-16 1.1437278 16738048
0.023266383 3.4824293e-16 1.4218097 16744448
0.017682016 3.9700688e-16 1.6209036 16749056
0.0095501766 4.2886493e-16 1.7509739 16752128
1.0734029e-16 4.2936116e-16 1.753 16752128
-0.0092229284 4.1416939e-16 1.6909748 16750848
-0.018085616 4.0606871e-16 1.6579014 16750080
-0.02570428 3.8473253e-16 1.5707897 16748032
-0.025632489 2.8772351e-16 1.1747204 16738816
-0.025876753 2.3235154e-16 0.94864714 16733696
-0.019042507 1.4247257e-16 0.5816884 15086592
-0.014695374 9.4229087e-17 0.38471943 14230016
-0.016837083 9.445275e-17 0.3856326 14230016
-0.016486738 8.2197136e-17 0.33559528 14032384
-0.018807502 8.4374977e-17 0.34448698 14032640
-0.018887307 7.7013936e-17 0.31443325 13900800
-0.021386823 7.9920417e-17 0.32629988 13966592
-0.022316052 7.6958892e-17 0.31420851 13900800
-0.025936551 8.303333e-17 0.33900928 14032384
-0.025251811 7.5430031e-17 0.30796647 13900800
-0.028064149 7.8567143e-17 0.3207747 13966592
-0.026850468 7.0724406e-17 0.28875431 13769216
-0.029307125 7.2881236e-17 0.29756024 13835008
-0.026481548 6.236554e-17 0.25462663 13637376
-0.031897996 7.1337757e-17 0.29125851 13834752
-0.033028934 7.0320788e-17 0.28710639 13769216
-0.036629319 7.4409482e-17 0.30379975 13900544
-0.034782466 6.7555311e-17 0.27581549 13768960
-0.037461016 6.9693348e-17 0.28454468 13769216
-0.039827991 7.1098199e-17 0.29028043 13834752
-0.039431963 6.7649345e-17 0.27619943 13768960
-0.041671455 6.8807054e-17 0.28092614 13768960
-0.04396366 6.9960759e-17 0.28563648 13769216
-0.045678414 7.0142858e-17 0.28637996 13769216
-0.045610733 6.7664215e-17 0.27626014 13768960
-0.048967831 7.0258087e-17 0.28685039 13834752
-0.047405951 6.5849877e-17 0.2688525 13703168
-0.050661772 6.8195298e-17 0.27842841 13768960
-0.051442083 6.7163684e-17 0.27421653 13768960
-0.05160876 6.5410604e-17 0.26705906 13703168
-0.053844929 6.6301577e-17 0.27069673 13768960
-0.057725783 6.9108167e-17 0.28215551 13769216
-0.057000287 6.6393467e-17 0.27107188 13768960
-0.055100117 6.2485786e-17 0.25511757 13637376
-0.063849688 7.0541446e-17 0.28800732 13834752
-0.059875533 6.4484334e-17 0.26327726 13703168
-0.060402285 6.3449266e-17 0.25905126 13703168
-0.060652364 6.2176506e-17 0.25385487 13637376
-0.061560646 6.1618742e-17 0.25157759 13637376
-0.064632729 6.319871e-17 0.2580283 13703168
-0.058839336 5.6230858e-17 0.22957991 13571328
-0.058822885 5.496679e-17 0.22441895 13571328
-0.062634207 5.7253227e-17 0.23375405 13571328
-0.059682865 5.3388957e-17 0.21797696 13505536
-0.057638772 5.0477899e-17 0.20609166 13439744
-0.059036553 5.0635663e-17 0.20673579 13439744
-0.058764093 4.9380323e-17 0.20161048 13439744
-0.059007645 4.8596785e-17 0.19841143 13439488
-0.062411204 5.03923e-17 0.20574217 13439744
-0.067669414 5.3584055e-17 0.21877351 13505536
-0.059840456 4.6485062e-17 0.18978967 13373952
-0.065157346 4.9669066e-17 0.20278935 13439744
-0.061596047 4.6089643e-17 0.18817526 13373696
-0.063886538 4.6936104e-17 0.19163118 13373952
-0.063002132 4.5458475e-17 0.1855983 13373696
-0.071851857 5.092959e-17 0.20793582 13505280
-0.067013405 4.6673795e-17 0.19056024 13373952
-0.068725534 4.7044805e-17 0.19207498 13439488
-0.069088072 4.6491977e-17 0.18981791 13373952
-0.078453697 5.1911748e-17 0.21194579 13505536
-0.067279756 4.378309e-17 0.17875803 13373696
-0.066109635 4.2320019e-17 0.1727846 13307904
-0.085535377 5.3873158e-17 0.21995385 13571328
-0.094084077 5.8313864e-17 0.23808441 13637376
-0.089419894 5.4550603e-17 0.22271974 13571328
-0.091388583 5.4883923e-17 0.22408062 13571328
-0.075388633 4.4578189e-17 0.18200427 13373696
-0.095378309 5.553958e-17 0.22675753 13571584
-0.086795196 4.9780103e-17 0.2032427 13505536
-0.094266385 5.3258957e-17 0.21744619 13571328
-0.08900702 4.954525e-17 0.20228383 13505536
-0.10315643 5.6582264e-17 0.23101461 13637120
-0.10400217 5.6220515e-17 0.22953768 13637120
-0.099405192 5.2965152e-17 0.21624663 13571328
0.12382531 -0.0014483335 0.26554424 13834752
0.15745881 -0.0018682672 0.34253684 14164480
0.17993759 -0.0021660335 0.39713073 14427904
0.16186756 -0.0019771275 0.36249581 14295808
0.17841414 -0.0022115556 0.40547696 14493696
0.15551734 -0.0019566154 0.35873502 14230272
0.16298403 -0.002081594 0.38164917 14361856
0.14733015 -0.001910449 0.35027066 14230016
0.16263804 -0.0021415565 0.39264297 14427648
0.14652167 -0.0019595029 0.3592644 14230272
0.14903094 -0.0020245695 0.37119403 14296064
0.13928647 -0.0019224517 0.35247129 14230016
0.14171116 -0.001987566 0.36440966 14230272
0.14686841 -0.002093632 0.3838563 14361856
0.15040854 -0.0021796427 0.3996259 14427648
0.13677123 -0.0020152912 0.36949292 14295808
0.13509595 -0.002024455 0.37117305 14295808
0.13845967 -0.0021106086 0.38696885 14361856
0.13203435 -0.0020478079 0.37545469 14296064
0.13031121 -0.0020568604 0.37711439 14296064
0.13725261 -0.0022053171 0.40433314 14427648
0.12239467 -0.0020024008 0.36712953 14230272
0.13127851 -0.0021874344 0.40105444 14362112
0.12358298 -0.002097839 0.38462761 14296064
0.1139658 -0.0019714418 0.36145335 14230016
0.11849359 -0.002089435 0.3830868 14296064
0.11959551 -0.0021503409 0.39425355 14361856
0.11858365 -0.0021747779 0.39873397 14361856
0.11053082 -0.0020683124 0.37921405 14295808
0.12356304 -0.0023600161 0.43269637 14493696
0.1090811 -0.0021272909 0.39002749 14296064
0.11064933 -0.0022041514 0.4041194 14361856
0.10637304 -0.002165264 0.39698961 14361856
0.10395269 -0.0021631201 0.39659658 14361856
0.10749812 -0.0022876977 0.41943723 14427904
0.097676583 -0.0021268507 0.38994676 14296064
0.099588908 -0.0022197878 0.40698627 14361856
0.10062101 -0.0022969847 0.42113993 14427904
0.092418663 -0.0021618409 0.39636204 14296064
0.094690643 -0.0022709246 0.41636193 14427648
0.088089615 -0.0021672109 0.39734656 14296064
0.093943246 -0.0023723848 0.43496412 14493696
0.094450332 -0.0024498678 0.4491702 14559488
0.092199534 -0.0024579845 0.45065835 14559488
0.093251787 -0.0025569785 0.46880838 14625536
0.088037163 -0.0024847437 0.45556453 14559744
0.08481364 -0.0024658833 0.45210657 14559488
0.082346529 -0.0024683697 0.45256242 14559488
0.083349884 -0.002578208 0.47270069 14625536
0.075385779 -0.0024086058 0.44160503 14493696
0.086821996 -0.0028682211 0.52587306 14888960
0.076077051 -0.0026014592 0.47696367 14691072
0.082297526 -0.0029163412 0.53469563 14954752
0.077912726 -0.002864795 0.52524489 14888960
0.069110908 -0.0026402962 0.48408425 14691328
0.072994247 -0.002901681 0.53200775 14888960
0.073615678 -0.0030498109 0.55916661 15020800
0.062557459 -0.0027056343 0.49606362 14757120
0.05925243 -0.0026803804 0.49143347 14691328
0.061371189 -0.0029096755 0.53347355 14888960
0.056936529 -0.0028355541 0.51988375 14823168
0.058341291 -0.0030596252 0.56096596 15020800
0.052340373 -0.0028984793 0.53142077 14888960
0.05073737 -0.0029760229 0.54563797 14954752
0.04549462 -0.0028362204 0.52000588 14823168
0.047969557 -0.0031908639 0.58502793 15152384
0.043938916 -0.0031324229 0.57431304 15086592
0.049803019 -0.003824617 0.70122319 15679232
0.053891376 -0.004484578 0.82222354 16206336
0.051384706 -0.0046657771 0.85544538 16338176
0.049007807 -0.0048959688 0.89764982 16535808
0.04224664 -0.0046903468 0.85995013 16338432
0.036072697 -0.0045062699 0.8262006 16206336
0.040154036 -0.0057335603 1.0512178 16736000
0.035532396 -0.0059200106 1.0854024 16736768
0.026176305 -0.0052340147 0.95962876 16733952
0.021836376 -0.0054582818 1.0007468 16734720
0.021989841 -0.0073293652 1.3438001 16742656
0.017169081 -0.0085842852 1.5738829 16748032
0.0099972654 -0.0099972654 1.8329455 16754176
1.07155e-16 -0.0095447218 1.749974 16752128
-0.0094791315 -0.0094791315 1.7379483 16751872
-0.018565295 -0.009282372 1.7018734 16751104
-0.025033077 -0.0083436966 1.5297724 16747008
-0.026853723 -0.0067124325 1.2306887 16740096
-0.013142686 -0.0026279117 0.48181361 14691072
-0.018715037 -0.0031180901 0.57168525 15086336
-0.013282894 -0.001896653 0.34774122 14032640
-0.017883683 -0.0022340636 0.40960369 14361856
-0.017222498 -0.0019120926 0.35057199 14098176
-0.018425627 -0.0018407536 0.33749238 14032384
-0.019066904 -0.0017312918 0.31742314 13900800
-0.020601679 -0.0017143715 0.31432089 13900800
-0.019907039 -0.0015287588 0.28028977 13768960
-0.022503437 -0.0016042792 0.29413605 13834752
-0.021982642 -0.0014622528 0.26809627 13703168
-0.02588487 -0.0016137116 0.29586542 13834752
-0.02370213 -0.0013902589 0.25489658 13637376
-0.026954312 -0.0014926626 0.27367172 13703168
-0.027929341 -0.0014647142 0.26854753 13703168
-0.030808868 -0.0015343438 0.28131375 13768960
-0.02777132 -0.0013166688 0.24140422 13571584
-0.032199804 -0.0014566107 0.26706183 13703168
-0.035282407 -0.0015259777 0.27977988 13768960
-0.032892112 -0.0013626814 0.24984039 13637120
-0.035613582 -0.0014157178 0.25956431 13702912
-0.035898097 -0.0013714422 0.25144663 13637376
-0.038882997 -0.0014296999 0.26212788 13703168
-0.042289671 -0.0014986005 0.27476043 13768960
-0.043787621 -0.0014973201 0.27452567 13768960
-0.042352192 -0.0013991323 0.25652346 13637376
-0.044255491 -0.0014139806 0.25924581 13702912
-0.046537019 -0.0014394994 0.26392454 13703168
-0.044216506 -0.0013254072 0.24300635 13637120
-0.049413163 -0.001436645 0.26340121 13703168
-0.051987465 -0.001467284 0.26901871 13703168
-0.051698167 -0.0014175718 0.25990424 13703168
-0.052112781 -0.0013892956 0.25471994 13637376
-0.05308973 -0.0013770498 0.25247476 13637376
-0.054465972 -0.0013754501 0.25218144 13637376
-0.058221389 -0.0014323826 0.26261973 13703168
-0.058544096 -0.0014040377 0.25742283 13702912
-0.053135056 -0.0012429258 0.22788383 13571328
-0.056003839 -0.0012784604 0.2343989 13571328
-0.057756811 -0.0012873709 0.23603261 13571584
-0.056127585 -0.0012221456 0.22407389 13505536
-0.061321095 -0.0013049915 0.23926327 13637120
-0.056793664 -0.0011818022 0.21667714 13505536
-0.053057116 -0.0010799979 0.19801185 13439488
-0.057305261 -0.0011415294 0.20929335 13505280
-0.053328536 -0.001040009 0.1906801 13373696
-0.058486506 -0.0011170743 0.20480962 13439744
-0.055964969 -0.0010472467 0.19200711 13373952
-0.058151595 -0.0010664776 0.19553299 13439488
-0.064732522 -0.0011638982 0.21339452 13505536
-0.061167516 -0.0010785862 0.19775303 13439488
-0.063447982 -0.0010975573 0.20123129 13439744
-0.063320987 -0.0010748828 0.19707404 13439488
-0.063150562 -0.0010522492 0.19292429 13439488
-0.067997038 -0.0011124449 0.20396085 13439744
-0.063965499 -0.0010277707 0.1884363 13373952
-0.068258248 -0.001077403 0.1975361 13439488
-0.063031472 -0.00097759673 0.17923716 13373696
-0.068050735 -0.0010373307 0.19018908 13373952
-0.070113085 -0.0010506666 0.19263412 13439488
-0.064914264 -0.00095649611 0.17536846 13307904
-0.073971413 -0.0010719554 0.19653732 13439744
-0.078258343 -0.001115585 0.20453656 13505280
-0.074661128 -0.0010471576 0.19199076 13439488
-0.074972138 -0.0010347761 0.18972069 13439488
-0.079731554 -0.0010831447 0.19858882 13439744
-0.086477995 -0.0011565107 0.21204008 13505536
-0.0876332 -0.001153921 0.21156527 13505536
-0.087622672 -0.0011362144 0.20831886 13505536
-0.078939252 -0.0010081937 0.18484694 13373952
-0.094264984 -0.0011859791 0.21744296 13571328
-0.085381031 -0.0010583517 0.19404314 13439744
-0.087661274 -0.0010707366 0.19631384 13439744
-0.089556091 -0.0010780488 0.19765452 13505280
-0.10775696 -0.001278549 0.23441514 13637376
0.2210162 -0.005170424 0.47397077 14823168
0.15661651 -0.0037166567 0.34070447 14164480
0.19148467 -0.0046102046 0.42261568 14559744
0.17776097 -0.0043426435 0.39808846 14427904
0.17961434 -0.0044529983 0.40820464 14493696
0.1650558 -0.0041533671 0.38073757 14361856
0.14766087 -0.0037718925 0.34576792 14164480
0.14499742 -0.003760512 0.34472468 14164224
0.16186546 -0.0042628935 0.3907778 14427648
0.15406746 -0.0041209552 0.37776634 14296064
0.15908344 -0.0043223915 0.39623195 14427648
0.14883509 -0.0041086087 0.37663457 14296064
0.1384431 -0.0038835751 0.35600582 14230016
0.14543253 -0.0041464502 0.3801035 14296064
0.15075405 -0.0043694293 0.4005439 14427648
0.13919497 -0.0041021309 0.37604073 14296064
0.14432392 -0.0043256069 0.39652669 14362112
0.14316967 -0.0043649408 0.40013242 14427648
0.13368711 -0.0041470067 0.38015449 14296064
0.13128513 -0.004144589 0.37993288 14296064
0.13563938 -0.0043589226 0.39958075 14362112
0.12871423 -0.0042117056 0.38608539 14296064
0.12909514 -0.0043022358 0.39438426 14361856
0.12602454 -0.0042786971 0.39222649 14361856
0.13019787 -0.0045045991 0.41293487 14427904
0.12764825 -0.0045018578 0.41268355 14427904
0.11900964 -0.0042797411 0.39232218 14361856
0.12370915 -0.0045376904 0.4159683 14427904
0.11500289 -0.0043041203 0.39455703 14361856
0.11971352 -0.0045731184 0.41921601 14427904
0.11473203 -0.0044751232 0.41023281 14427648
0.11724609 -0.0046712584 0.42821243 14493696
0.11594404 -0.0047203107 0.43270904 14493696
0.11104694 -0.0046216222 0.4236623 14493440
0.10997584 -0.0046809935 0.42910483 14493696
0.11225016 -0.0048885094 0.44812778 14559488
0.10481324 -0.0046726102 0.42833638 14493440
0.1054963 -0.0048167002 0.44154501 14559488
0.097182855 -0.0045467038 0.41679454 14427648
0.098456129 -0.0047226017 0.43291909 14493696
0.093929201 -0.0046218946 0.42368725 14427904
0.094783448 -0.0047873477 0.43885431 14493696
0.095063418 -0.0049316864 0.45208576 14559488
